# 3D point list with one line of data per point:
#   POINT3D_ID, X, Y, Z, R, G, B, ERROR, TRACK[] as (IMAGE_ID, POINT2D_IDX)
# Number of points: 377, mean track length: 4.7682005494505493
25943 -0.79366615227711401 3.4408982501001382 2.2281197904518559 187 145 103 1.0707104859931158 64 1214 65 1576 68 2332
5190 0.75769858109770283 3.6192244983857922 1.9920680410831397 203 135 88 0.32074267418507491 46 1596 45 1556 44 1297 43 1593
25736 -2.3392700910957287 3.0747007670705013 2.6040628819441838 149 110 67 0.8817951877066651 67 1070 68 1074 65 2188 66 1801
4983 -0.94944334387012286 3.5547092553184281 2.1145368754722331 163 121 67 1.5486839410316491 50 4556 53 3948 52 5019 49 1629 47 4045 46 4235 53 1927 52 2202 45 3083 54 1574 57 1789
25942 -0.49335231471071928 1.8563059635661066 3.3763675960455557 142 117 77 0.02870241588275415 64 1673 68 2327
5189 0.53833815412789487 3.6637718465320805 2.0005395603106608 202 139 88 0.50248382907643174 52 5065 45 1554 44 1303 43 1601
25735 -2.0472324671736368 1.7214736389103238 3.508727522830029 153 122 78 0.34541113696667947 67 1060 68 1071
4982 -1.0113561054821201 3.6752262329904148 1.9600282831807494 184 131 83 1.9533052660768908 48 4531 50 1543 47 1319 46 4192 50 2194 52 1731 49 3911 47 4030 45 1274 44 1642 43 1456 42 2934
10473 -1.1773989275153485 3.6026049530743069 2.1065159000110336 186 147 106 1.4439071953887777 60 3755 57 2328 55 1092 56 3520
25941 -0.98213125362490605 3.2922695295558779 2.1461949766572457 157 115 73 1.1098499506115476 66 1929 68 2319 64 2193 67 1350
5188 0.97237241620208759 3.5810629287029268 2.0437214696237178 199 139 84 0.96769977447441424 46 1590 45 1552 44 3788 43 3469
25734 -2.2363281633604646 2.854145289605269 2.6930919774877755 153 115 70 0.31840509934192468 66 807 68 1063
4981 -1.2375517592008658 2.8952151746991426 2.5753395671404213 205 162 117 1.4159688297592972 47 2159 46 3440 50 3903 53 2136 52 4320 54 2585
25940 -0.67102516305230786 1.9460605871055183 3.1277929830051332 167 146 103 0.66321867096224729 65 2313 68 2315
5187 -0.26495934805526844 3.675790586335784 2.0482021814472371 175 119 74 1.095684227099859 47 1839 45 1523 43 1612 52 1699 44 3698
25733 -2.4301928074421961 2.0843823699115522 3.2429248598426739 169 138 94 0.044338871245978094 67 903 68 1056
4979 -0.79944547838645319 4.036229104130828 1.7178432856848906 103 67 33 0.94856783244799203 50 1861 53 2307 52 1870 49 4153 48 1748 46 4003 42 1401
25732 -2.2280637500729141 1.6609073938326662 3.5478664123451429 182 151 107 1.4209765913971626 64 244 67 1160 68 1043 66 1253 69 565
25939 -1.5256792728161173 2.1283447609100556 3.1862182776967845 147 120 73 1.8939199145388248 64 1062 68 2307 69 2388
5186 -0.65770326448706373 3.8118285145121709 1.8978078098169007 169 123 73 0.45368457586796052 46 1591 45 1516 44 1610 43 2806
25938 -1.5189164707977052 1.6008827974301623 3.384731039858206 158 129 85 0.55353674227890692 67 2340 68 2304 66 2121
5185 0.86002672377197986 3.5073286111674351 2.1326576211053325 193 136 83 0.53206742523218031 46 1731 45 1505 43 2755
25731 -2.2394475599821257 1.6280088253249532 3.5153104094626579 150 119 75 0.77373480506837622 67 1027 68 1041 65 642
4978 -0.39063086349424014 3.2949083246636 2.2978836787851891 197 137 84 2.1650364261009476 50 1941 52 2093 49 3011 47 980 48 2160 46 1860 50 1943 49 1727 48 2093 47 1736 45 1347 45 1352 44 1545 44 3137 43 1516 43 3133 51 2140 41 2572 41 2573 42 2690 40 1632 39 2001 38 1303
25937 -1.3730203685390789 1.4468139766533317 3.7048092048158732 151 123 83 0.77645962949486913 65 1623 68 2300 69 2331
5184 0.96746823265456461 3.7605229304722223 1.9879792384684507 205 138 83 0.96822162071990814 46 1710 45 1479 44 1371
25730 -1.7450807497990259 2.3921977355756674 2.9373551308222892 182 149 106 1.1449887212772691 67 976 68 1029 66 1322 65 767 69 618
4977 -0.87886143870368627 3.8568702094762326 1.8365436829755772 147 99 50 2.0616427442415417 48 4239 47 4264 46 3827 50 4332 52 1943 49 1168 47 1361 46 1423
25936 -1.4260451128488008 1.5632477905237221 3.5913759149621725 146 117 77 1.1100862363533723 66 3050 68 2296 65 1620 69 1159 64 1074
5183 0.041745349681648371 3.8065573862767965 1.8907860979997357 167 114 60 0.47677318286074521 45 1459 44 1292 42 2607 41 3179 48 1757
25729 -1.8448617833708147 3.4154577836078994 2.2673558224438968 154 112 70 1.3761512476928353 67 1023 68 1025 66 2045 65 1129
25728 -1.4852250805753311 1.4687366219542455 3.4420745980331482 174 146 106 0.52907060126587457 67 1008 68 1021
25726 -1.2584067099779519 1.5981625330570912 3.4821250978757861 172 147 106 0.34331787358365645 65 729 67 742 68 1013
4973 0.75452679168851144 2.8681245952708974 2.6641521121680891 154 98 49 1.1413430417879493 47 992 48 4102 46 4665 45 3385 45 4235 44 3184
25932 -1.4721421431037041 2.31682761451831 3.0452357501742546 180 153 110 0.53365212350946489 67 3427 68 2280 69 1896
5179 0.96509055816241107 3.6371618722246861 2.0026427992098639 202 141 86 0.43784495873554774 46 3870 45 1422 44 1207 43 3669
25725 -1.396164710718653 1.5434531776416769 3.6092231411729756 153 124 84 1.06927330045705 66 1189 68 1012 65 790 69 620 64 440 70 559 71 767
4972 -0.36454997173378689 3.735814682499941 1.8426970545470061 184 128 79 1.086729316298338 52 4418 46 4657 51 3988
25931 -1.3380556111069202 2.0993458268113612 3.3556865471256909 144 115 71 1.5029483805217989 66 2106 67 2295 68 2274
5178 0.51681922788215484 3.7193985960733005 1.8832735061308294 195 135 81 1.8038286369079204 48 4225 45 1420 43 1281 44 1234
25724 -1.8405351518496222 1.5125812115959523 3.6868264022380912 180 151 109 0.99862427276480792 67 1403 68 1010 69 1107
4971 0.19394216390875263 2.2553394963556386 3.3478603710661146 153 111 63 0.6177440486635879 47 2352 48 3302 46 4638
25930 -1.5932878935131591 2.7101539239477712 2.7594464426325596 153 120 77 0.22190913891551922 66 2005 68 2267 69 1898
5177 -0.90964387078155096 3.4496109555082666 2.1726286949994038 194 150 111 0.74067160874386451 49 1622 45 1406 51 1492
25723 -1.7535716291337116 1.7560152725504998 3.4814251207619864 150 122 75 0.74193558674580784 67 989 68 999 65 1419 66 1743 69 606 63 422 70 397
4970 0.729137565383006 4.1288526381260224 1.8070881672961412 192 137 83 0.75054865892465861 47 1228 48 4824 46 4622
25929 -1.3767146279056384 1.8489641981845857 3.4303501910809575 152 123 79 0.25843823339314642 67 2333 68 2266 69 1033
5176 -1.0246469889809802 3.4685088152408916 2.182465435808469 194 151 106 0.85002587232902005 53 3805 45 1404 54 2932 60 4272 57 4496 55 1547
25722 -1.9814729656622931 3.0153674348215485 2.5046326196144459 152 113 70 0.56961591062366013 67 975 68 992 69 977
4969 0.53586164675231274 2.1747944326483339 3.088584403210608 211 163 117 1.1976174924366743 48 3196 46 4593 40 2161
25721 -1.7773594102832644 1.716129261432906 3.4764694824333726 176 148 101 0.53201877543608045 65 983 66 537 67 2480 68 989 69 958
4968 -0.57981016162225241 2.9610089866471379 2.531745605935217 191 144 98 0.35804908585831813 47 3472 48 4094 46 4592
25719 -2.7058003130534032 1.7020164577506951 3.5867934198576372 166 135 91 0.88093586265342905 66 1053 68 969 65 885
25925 -1.8435255222631159 2.8113795529140124 2.6855821659285608 191 154 110 0.47999488009993091 67 2546 68 2235 69 1158
5172 -0.42952167924471257 3.3089037669447747 2.2975243664991707 206 163 110 1.3408208210475989 46 3340 45 1349 43 3119 41 2577 40 1650
25718 -3.086240810604727 3.0079485179955299 2.7948123204113218 141 103 67 1.8373636149385579 65 1356 68 947 66 1617
4965 -1.1790335811870232 2.9895452291914419 2.5159490890914209 167 124 79 1.291838945170185 50 3831 46 4546 49 875 51 2103
25924 -1.5472823808749745 1.4345277309928128 3.6828064667122411 159 130 88 0.37336808527081439 66 2061 68 2233 67 2506
5171 -0.26516576947089637 3.5762214179339691 2.0641088452299354 170 118 70 0.27907580211447303 50 1477 45 1322 43 1462
25717 -2.4191934023195292 1.7952859950635491 3.4836115619580457 187 156 112 0.71535056571180544 65 1015 68 930 66 1793
4964 0.62620359328914221 3.7110722715179727 2.0217139411495788 212 145 92 1.1001766492637708 48 4233 46 4538 45 3445 43 3869
25716 -2.5525533699748069 2.1619538428705676 3.1132432958140712 165 130 85 0.62440248081954242 66 1072 68 920 65 950 67 912
4963 0.18794735282941005 2.2356048236069586 3.2003743327112311 210 172 135 1.0648407015073671 47 2907 48 3215 46 4535
25715 -0.022676361747284213 2.0967554593219573 2.0708812329153519 143 126 101 1.8606289207725881 66 2201 68 895 69 1266 65 1842 67 1987 66 211 65 201 70 864
4962 -0.8420543783520823 2.2665224534817736 2.7006884010878855 155 130 106 1.4739767280207601 47 4372 48 813 46 4532 45 4209
25714 -0.38430869600923473 3.5887030414532473 1.9116673206488852 197 152 111 0.38917607927748743 67 1686 68 873 66 2373
4960 -0.54577043812950587 3.6311448424801838 2.170289828778762 161 108 58 0.38322167912929367 47 4386 48 4580 46 4527
25713 0.56415895779522551 1.4779190754893503 3.6330020631843576 169 143 106 0.9110073273259891 67 836 68 870 69 694 72 667
5374 -0.52878499807021706 2.0646034607998209 2.3268926974170512 116 107 92 1.8294950895607507 47 2002 48 2864 49 1012 48 736 46 2163 45 2174 44 2336 43 890 51 789 52 170 42 1717
25920 -1.5439010175614942 2.3656541722971105 3.2515574169734784 160 128 87 1.2966595247346058 67 2503 68 2200 65 1634
5167 0.94075309650624783 3.4852514247503277 2.1497365777345898 200 140 87 0.42101446135292298 46 841 45 1233 44 1081 43 1093
25919 -1.1328311088310923 2.1631542038255223 3.1369815686790576 153 125 85 0.47953348537735269 67 3356 68 2187 69 1078
5166 0.76215765043528672 3.7281869878433138 1.9455209809676539 179 112 57 1.3012341001393897 46 1241 45 1223 44 1236 43 3736 42 1509 41 950 40 1101
25712 0.25826045189172608 4.0174910612590615 1.7394389516129776 151 103 62 0.81013299555980445 66 988 67 833 68 866 65 329 70 660 71 588 72 1008 73 584 74 510 75 977 76 956 77 984 78 1061 80 902 79 1205
4959 -0.62549510865864022 2.7302999018122085 2.7274874724830158 157 109 69 0.22392831157804127 53 2341 46 4524 60 3617
4958 -1.6287866917710518 2.7438240551775515 2.7211071877801389 184 150 113 0.3878260193996097 48 3820 46 4522
25711 -0.037439494979703149 1.8704889763521313 2.3735147457492491 52 53 60 1.7737944104808696 68 860 70 658 71 329
25918 -1.4474589511685199 3.3927447229007801 2.2104003644508783 159 117 75 0.55866700393356339 64 1077 65 1660 66 1271 68 2183
5165 0.85419991617367297 3.6769991665240163 1.9538848179738648 200 143 84 0.66460907292587756 48 2121 45 1216 42 3218 41 1421
5371 -1.2411063521299266 3.3556228265707317 2.2374278054412939 192 150 108 1.8929007362826487 47 3218 45 1790 48 1152 45 1789 44 1561 44 1594 43 2996 43 2998 42 1665 41 1869
25917 -1.4511571107352716 3.1789740521542891 2.3133903914601617 147 110 66 1.0385823907054057 66 2069 68 2177 67 2406 69 1045
5164 0.73644286304670814 3.2909842364344217 2.2970616488627922 192 135 82 0.65332447186969111 48 1162 45 1191 43 829
25710 0.36010720484730535 3.5206397401875669 1.7044955811607634 175 127 87 1.7710883988833277 67 1955 68 854 69 1745
4957 -0.87609646096948568 3.2353708677510995 2.2845852015299033 166 121 72 1.3650965974020508 48 3366 50 3546 46 4515 52 3925 45 3296 44 3211 43 2992
25916 -0.93907319040082027 1.9719618846891027 3.308284646284152 148 123 82 0.68122874601341243 66 1312 70 800
5163 0.038725608061544278 3.6281930553828325 2.0157775457890903 175 120 66 1.0510324360142977 46 1480 45 1168 44 1126 42 1328 41 1329 40 841 39 1586 38 1469 37 2061
25709 0.69212239627963801 4.1103056087773977 1.6567112677014071 174 126 86 0.90347134216361968 66 618 67 869 68 853 72 457 73 593 74 529 75 541
4956 -0.12951006608899798 4.0427168803754254 1.707092536888261 178 133 93 1.5491724361639945 49 3698 50 4245 46 4505 44 3327 43 3610 42 272
4955 0.79437765065289612 3.8486934323107551 1.8565754623544446 183 114 59 0.50553019054185744 47 3874 48 4198 46 4481
25708 -1.3423359657798244 3.6309907386510267 2.2340959706095291 184 142 100 1.4311508873399688 66 1270 68 836 65 1694 67 2365
5162 -0.56979030064481373 3.5899981773999063 2.1047948090444599 165 120 71 1.0702407410250072 49 1351 45 1141 44 2852 43 1436
4954 -0.023001969562269568 3.031459716196323 2.4453511250659723 157 96 51 0.76588846301239699 47 3018 50 3819 46 4476 48 3976 45 4147
25707 -1.2018072933263768 3.3052044556861877 2.2710487464731925 176 134 92 0.41034650754671015 66 900 68 799 69 491
25914 -1.0373504686370225 2.2069487159106922 3.121124785596014 151 126 86 0.46444549055210926 67 2768 68 2160 65 1891 66 1884 69 1819
5161 0.65707351606548947 4.0455769611158034 1.7082341095008629 203 143 93 0.50250558541688428 47 1570 48 4393 45 1134 44 1341
25705 -0.74767307911046843 2.7278760156827433 3.0352301477933201 186 159 118 1.5049250816446278 67 761 68 795 65 1510 66 1297
4952 -0.64778067145779017 2.6466335346481258 2.6025848008952677 215 175 128 1.1699585146988654 47 2219 48 4862 46 4462
25704 -0.96865621909364286 2.7002074543349455 2.7050724431659798 175 143 102 0.73957092178675776 63 847 68 789 69 712
4951 0.2013512178881354 3.3442745740939062 2.2393689706625164 173 106 51 0.54020613551924979 48 3132 46 4461 51 3489 53 4087 60 3400
25703 -1.1663598665083246 3.2380994462357369 2.2199540429779847 191 149 107 0.94945168894151344 67 762 68 788 65 1536 66 1291
4950 -1.7228409481733302 2.6309840567077698 2.8378620058007487 167 137 99 0.484465851423376 50 2610 46 4457 49 4113
25702 -0.98490016494077492 3.0395132565961047 2.4811460794050975 152 113 70 0.76851379985419788 66 1993 68 786 65 1516 64 2026 69 713 70 629 71 618 72 471 74 937 73 1560 75 566 76 1245 77 1097 78 1322
4949 -0.015366100332155694 1.7152123884809034 2.4919373313165036 168 152 130 1.1215449120161245 46 4433 51 2567
25701 -1.6000171251810034 3.4732971419886915 2.165758770616554 156 114 72 0.3271342944207834 67 749 68 780 65 751
4948 -0.12566399824011201 3.6873251606238369 1.9801748312431713 184 122 71 0.38422743030287387 48 4793 46 4429 45 4014 51 3940
25700 -1.350364870422228 2.5450656689771813 2.8702065649559372 155 123 82 1.3575795675239182 66 548 68 778 69 947
4947 -1.0903382625471172 3.7943429308086007 1.9385574228928366 232 176 127 2.0534854416530384 47 4134 48 4667 50 4831 46 4417 47 4139
25699 -1.0662119276076722 1.6025289103965816 3.5849889351582651 151 123 83 0.90913333982787681 67 743 68 774 66 1641 70 458
4946 -0.87173087841078056 3.6825504995573044 2.0008649830892979 152 100 52 0.17549494860264717 48 4503 46 4414 45 3818
25698 -1.5045932860331268 3.1757869779476313 2.2745539611226846 150 110 68 1.3332362472221164 64 288 65 488 66 547 67 733 68 771
4945 -0.22626871213049235 3.6628164250436761 2.0264785606363556 195 135 83 0.58378585082384016 52 4463 46 4409 51 4101
4944 0.3201615037822812 3.5337907093396113 2.0905776386455277 191 135 95 1.3945338272412358 50 980 46 4391 44 3703
25697 -0.96953162389675251 1.3841853038540315 3.7410137112435367 187 159 119 0.96051644989448359 65 438 67 776 68 768 70 591 71 570
25696 -1.1574765007916568 2.6532378348936332 2.803882443292022 159 127 86 0.43907920141718115 67 773 68 764 69 937
4943 -0.20391028723136603 3.6688365214726364 2.0666149929827768 196 139 86 0.96261275838740645 47 1841 48 2206 46 4389 51 1680
25695 -1.1004471351315832 2.3759975625736534 3.0215276631296399 182 156 119 0.29806128178858743 65 717 67 774 66 890 69 940
4942 0.9881551342017193 3.4562356839029875 2.1264216841557877 176 108 59 0.98304992839512573 48 1987 46 4376 43 2748 42 2615 41 3054 40 1028 39 3763 38 3250
25694 -1.1237933495830421 2.7801427797184766 2.7631017042165706 149 119 77 1.9103974162032864 67 305 68 761 69 1480
4941 0.9241194017983706 3.4871011437030583 2.1228216219870535 176 110 52 0.50852887288252535 48 2177 46 4357 45 4043 49 1770 44 3588 42 2617 41 3251 40 3074 39 3805 38 3204 37 2874
25693 0.011489064485334797 1.3936146238970644 3.626080331906119 177 152 112 0.62419028980711788 66 604 67 847 68 746 69 465
4940 -0.14470038561871365 3.5956517059883453 1.98326654403239 212 151 98 1.486147664035671 47 4043 48 4529 46 4350 44 2838 45 3871
25692 -0.35054383871143685 3.368706512341042 2.1794514759622317 173 129 86 0.8571314869728518 63 587 67 848 68 742 69 699
4939 -1.1083349348687288 3.7789988947839062 1.9449217360586224 183 127 78 0.14782267655036113 48 4687 46 4344
4938 0.54473323543196606 3.5082997688948563 2.109876251763962 209 146 95 1.4446765264190276 47 3975 46 4337 45 3803 44 3728 43 2734
25691 -0.26762343882278467 3.2189165345294772 2.3235815590994791 186 144 104 0.3307355453586181 65 1261 66 999 67 845 68 740 69 700
25690 -0.75465684895159335 2.6470870698994413 2.7772208181290954 185 152 109 0.8429069160085616 63 500 65 446 66 501 67 689 68 734 69 451
4937 0.75523814548273638 3.5135395054314937 2.1107972675463458 206 139 86 1.3686021629972214 47 4036 48 4659 46 4331 45 3836 44 3613 43 2774 41 3245 49 3736 40 3371 39 3851
25689 -0.68441700258171456 2.5687160503393001 2.8352941614294087 177 149 110 0.58555808686745636 66 2529 67 687 68 729 69 732 70 908 73 1510
4936 -0.55042623351833408 3.6921940584609891 2.1087430916402483 209 156 106 1.0421927399175654 47 1797 48 2166 46 4320
25688 -1.0630275335032022 3.2979439614241381 2.2125917452245716 189 147 105 0.23642009527780769 66 822 68 725 67 704
4935 -0.10006992625221214 3.6342535431723428 2.0200141705916272 227 165 114 0.36371954311143667 53 3245 46 4318 45 3804 51 3118
25687 -0.87692624555365373 3.4167848977138506 2.1733081704777444 167 125 83 0.9034822866970228 65 1583 66 810 68 724
4934 -1.083741662902624 3.6025129704831835 2.0560730617703249 192 141 94 0.24854633483819663 48 1965 46 4312 43 3063
25686 -0.93215988475820633 3.6530445061294916 1.9347197480302152 160 115 74 0.48111596269476448 66 816 68 723 65 2040
4933 -0.13088439046926073 3.4829593772106717 2.2735957677766891 217 155 104 0.15735698505823434 47 4053 48 4713 46 4301
25685 1.0861948807637292 2.2790525048363892 2.8904293138525459 132 121 99 0.79611485422580686 65 555 66 376 68 699
4932 -1.0346222022818037 3.6253665068832666 2.100171481194685 204 152 105 0.33542133829678411 50 4096 46 4289
25683 -2.1180962380963488 2.3550035741590158 3.0496327524483142 187 154 111 0.86943943024693349 65 629 68 695 67 1150 66 476
4930 -0.38065380630057072 3.5747849943528585 2.3641121556769424 202 149 99 0.90762327747070115 48 4776 46 4285 47 4123
25682 -2.8333045185794181 1.531970905567801 3.5059501374697701 165 134 90 0.7935084796245131 67 619 68 688 66 698
25680 -2.6588483714888884 2.4189018884515039 3.0950919788321345 168 131 87 1.0357354669050218 67 580 68 676 66 674
4927 0.40225461269135321 3.3168604611481811 2.188446410958834 169 108 61 2.0310706543452834 52 5268 46 4257 40 2397 39 2692
25677 -1.0619634911135294 1.8603089822532057 3.4395890716289732 148 119 77 0.80342171084009995 67 503 68 661 69 478
25676 -1.3476976156896368 2.6420340536002223 2.8365802433527221 181 149 108 0.49500023397102977 67 498 68 660 69 477
4923 -0.35872594819614467 3.5969048534391472 2.1361780520934381 206 150 101 1.1767981628683686 47 3995 48 4587 46 4221
25675 -2.9293146601612783 1.9934573640452291 3.2376936319332819 168 135 90 1.7046265494064123 66 692 68 652 65 598
4922 1.0649907794972986 3.3917920570447335 2.2237075697718311 178 107 51 1.2186244883269188 48 4778 46 4220 44 3732
25674 -3.1585852573900945 2.8959142894476924 2.5931167598007443 136 98 61 1.300738653673567 66 1110 68 642 67 940
4921 0.59919355594608181 3.4564247318301438 2.1983258574415094 177 114 63 1.6005548892698132 48 4631 50 1907 46 4214
25673 -2.9117996399123185 1.5101227061030849 3.5768590025376312 166 135 91 0.68961608530894891 67 927 68 641 66 1149
4920 1.0457289782947885 3.4127100738443295 2.1905297688216341 178 107 53 0.6498515039317404 48 4642 46 4203 41 3223
25672 -1.8066635877341193 1.7230623502799058 3.4676618844068163 151 122 80 0.57166846032548324 66 656 68 635 69 647
4919 -0.88633736391642137 3.671656209276589 1.9923020421126931 155 103 56 0.19971041971206352 47 4029 48 4533 46 4197
25671 -2.2092169374511381 2.9028338286699715 2.545715458159318 151 112 71 0.81223424479556117 65 630 66 721 67 673 68 628
25670 -2.2236749327559222 3.169414116145604 2.4900401491041402 174 136 97 1.4671062920023241 66 725 68 624 65 382
4917 -0.52181252471019646 3.5598606377919388 2.1595791474604957 179 126 74 0.98879094658981559 48 1957 46 4164 45 2932 44 2865 42 2843 40 3304 41 2374
4916 -0.96828386534100785 3.6501366744252621 2.043499076122075 159 107 60 0.43897293353867245 47 1904 46 4150 42 3569 41 3339
25669 -2.0593135511888034 2.3992129836041634 3.0767322614894459 186 153 110 0.82941463162414741 67 663 68 621 65 975 66 1174
25668 -1.2442046725634999 1.8346288739598462 3.3938419861106852 181 152 110 1.6210536838771443 63 538 66 1263 68 618 65 1134 69 915 70 565 73 541 74 467 76 534
4915 1.1026851776849695 3.3524516000028983 2.223700192395111 173 103 47 0.40311766739381721 47 1705 48 2058 46 4146
25667 -1.3174837935528003 1.957361143369569 3.3201228397305886 179 151 104 0.11730809728722282 67 496 68 616 69 387
4914 -0.98617064842050983 4.0828693141870094 1.9494741520509762 211 153 107 0.56473216166273354 47 3654 48 4155 46 4138
25666 -1.4934189718754407 2.4984655193315883 2.9020385635421437 158 127 83 0.17913017578361737 65 464 68 613 69 627
4913 -0.39081377894176211 3.9102993371638819 1.7817985273273818 173 115 67 1.3897336877991069 48 4126 46 4134 44 3771 45 3523
25665 -1.7739489534799164 2.9870588039009127 2.5186501063807798 149 110 69 0.46141140223748456 66 525 68 608 65 766 67 2525 69 625
4912 -0.36656724024736548 3.9234480593547674 1.7180270053139244 177 121 72 1.0389841442813965 47 3671 52 5205 46 4114 41 2467
25664 -1.8121051744647501 2.9884105784957455 2.5247003203619078 179 140 97 0.95126296692961765 65 296 66 526 67 1022 68 607 69 624 70 530 71 557
4911 0.83587961163666291 3.7726475562055466 1.9075039626488364 160 91 34 0.31603736329373239 47 3628 48 1807 46 4095
25663 -1.4656868873791782 1.8839975115567038 3.3190098200035765 176 147 103 0.45821315066693485 67 599 68 603 69 623
4910 0.93836716998037184 3.6960079710359706 2.0033782252561587 185 117 62 2.3931221245094392 48 4211 46 4085 45 3483 44 3339 43 1306 45 1450 41 3198 40 2876
25662 -2.3262667303056697 2.9216689945931154 2.5241315244882458 187 148 107 0.87207090357141392 66 1241 67 662 68 584 65 638
4909 0.9702566631436994 3.7087020959226757 2.0930846779307779 184 115 60 1.1059285357902875 47 1357 48 2119 46 4081
25660 -2.3881263821918743 3.0172475136564643 2.5289979252625767 189 150 109 0.33024338522728114 66 779 68 573 65 687 67 660
4907 1.1202549860139526 3.6845823573283112 1.9652024189081416 210 139 83 1.4296637583467195 47 3760 48 1774 46 4064
25659 -2.318025997487986 2.7355134007809174 2.7365248728278453 188 151 107 0.24545861911889669 67 661 68 568 69 641
4906 0.58410162817276368 3.7735438208151479 1.9613948690780343 178 112 52 1.6921840211914707 48 4253 46 4063 45 3718 43 3696 47 3642 44 1243
25658 -0.49768081822193505 2.2254408815174092 3.1266694255579686 191 189 164 1.3505366998558965 65 456 66 801 68 565 65 709 67 2706 68 2337 69 657 69 2007 70 912
4905 0.90273799831387347 3.6873730824884423 1.9144506613581715 174 105 50 0.24850598657056777 48 4223 46 4062 43 3739
25657 0.35444147961265032 3.9600886670060662 1.7574109711353947 159 111 71 1.9315865115716402 65 330 68 555 69 359 70 352 71 363 73 274 74 152 72 201 75 232 76 174 77 358 78 162 80 167 80 355 79 460
4904 0.97725525758516973 3.7019199421582814 1.976902693420802 186 115 59 1.5898175150728941 48 1776 46 4055 44 1184 43 1182
25656 0.66788325558136785 3.8021377394940505 1.8244256630071713 200 153 111 0.44297235222277376 65 535 67 870 68 552 69 535
4903 0.85840418644714278 3.8866746487022454 1.9076491608165171 210 141 84 0.69433688211197198 48 4423 46 4043 44 3575 45 2287
25655 -0.496236336261769 3.5158671865768154 1.9208587212790154 199 154 113 0.52256201146178161 65 328 68 547 67 846
4902 1.008712884984301 3.8083790852185815 1.8198534369901487 192 121 65 0.82401104465781716 48 5011 46 4037 44 3561 45 2517 43 1776
25654 -1.019541393706854 2.4103860897257583 2.986581396884608 187 166 139 0.45389989926972979 66 494 67 508 68 545 69 394 70 463
4901 0.021897344414209576 3.9901337791283504 1.8446293061178431 181 131 83 2.3560867300546326 47 3938 50 1327 46 4032 45 648 45 3648 44 1143 43 1175 42 1141 41 1171 41 1397 39 3802
25653 -1.1129537876932085 3.5710743268540726 2.147544396728517 184 145 102 0.97756569701882468 67 763 68 539 66 1315
4900 1.0417489076524862 3.8705005914005763 1.8829437057424365 184 114 54 0.83095169917448619 47 1175 48 1373 46 4023
25652 -0.96837807162497769 2.8952693274398689 2.5979403403290804 156 118 79 1.5964147508598974 67 511 68 535 65 741
25651 -0.67394435040509959 2.1339178659455675 3.2432957076031577 190 166 122 0.81506255758577095 67 516 68 533 69 492
4898 1.0908234330713935 3.7810663646075922 1.9015385510827345 189 119 59 0.28456114328118803 48 1785 46 4006 42 3071 41 2882 40 2980
25650 -0.98481690007203382 3.3704039793432261 2.1901907920337584 158 116 74 1.1845385138202293 65 728 66 1300 68 530 67 2616
4897 1.1183553719758594 3.7999031725559611 1.9154048058514681 192 122 63 0.58438317996407463 47 1166 48 3117 46 3973
25649 -0.4935123930398172 1.6310774203287792 3.5294816552835102 174 146 107 0.90366370202552071 65 690 67 477 68 528 69 497
25648 1.0594310985971236 3.4164490589038197 2.1210187282231883 175 132 97 0.49258902384946895 67 862 68 515 69 525
4895 -0.33920965662250557 3.7413084886516952 1.9587120090619825 208 148 98 0.41946403723930725 50 4870 46 3957 43 2862 42 2476
25647 0.97412851154700075 4.1418496160138263 1.6220572747209288 154 110 71 0.77619629714080041 67 554 68 503 65 195 66 377 69 472 70 381 71 358 72 462 73 293 74 288 75 287 76 349
4894 -0.29183258774492543 3.7336301881806877 1.9682648718883256 191 135 84 0.99446777710904166 50 4064 46 3953 51 3898
25646 1.1713711003247345 4.2563394535325552 1.4993249827470185 158 115 80 0.7348982906477094 66 624 67 558 68 501 69 541 70 503
4893 -0.67488438715087151 3.7672461740645016 1.9125607074230897 200 146 99 1.7550730662423124 47 4180 50 4058 52 4726 46 3944
25645 -1.3079077549018814 2.3230138496052888 3.0579640133010395 179 150 110 0.50237462734346494 66 336 67 311 68 475 65 301 69 398 70 339
25644 -1.3019967940786374 2.3137607402703955 3.1009050253449577 157 128 88 0.3359820364754979 65 475 66 335 68 474 69 400
4891 1.0585678733324526 3.5701415669222478 2.0730641151768312 181 110 54 0.64323234392302164 48 4766 46 3938 44 3773 45 3558
25643 -1.5042575535132436 2.3264496771073353 3.0694349147134297 159 127 86 0.9022579334257923 65 298 66 454 67 331 68 467 69 403
4890 0.85046399130953731 3.5708532820741432 2.0082740263395311 212 145 92 0.47796527675420364 48 4765 46 3923 43 3602 44 3639 42 3252
25642 -1.4167866733968519 1.4002904601345754 3.679132844720975 181 153 113 0.53500560294926203 65 365 68 465
4889 -0.68242125799758646 3.7903703557979345 1.8952372459420319 173 121 73 0.64600164549220129 47 3721 50 1639 46 3922 52 4764
25641 -1.4151088662680069 1.3514107257824122 3.7157073889992169 190 163 120 0.38166347884934937 67 286 68 464 66 455 69 406
4888 1.110249709671844 3.4550866857885056 1.9558285625310392 169 103 45 1.184691613280046 48 4643 46 3910 47 4022
25640 -0.80384307580492154 2.9304879131365915 2.5797679596536018 157 119 80 0.52601676952503473 65 278 66 318 68 459 69 322
4887 0.90462043685594318 3.5113565859349865 2.1113746195797267 205 138 83 1.6008398208261481 47 1801 48 4640 46 3899 48 4633 45 3960 45 3971 44 3593 44 3598 43 2766 42 2598 42 2599
25638 -1.1309084500715527 2.9534714307463492 2.5402159851738442 183 146 104 0.46731067488718991 64 353 68 446 69 405 66 342
4885 -0.45836127663679671 3.7312431636882453 1.9800021468475271 209 151 103 0.61822201195287585 48 4701 46 3881 45 3852 51 3892
25636 -2.2154953041440497 2.6900613202481019 2.746019139587295 188 151 107 1.0063776146918739 66 474 68 440 67 1147 69 256 70 396
4883 0.44634148995339384 3.6894098903789065 1.9475555582348199 171 102 45 1.1580606660136668 48 4721 46 3854 45 3604 43 3600 42 2593
25635 -2.137542982577433 2.9579644564297913 2.8206123714606872 185 147 102 2.0520175977676645 66 751 67 578 68 439
4882 0.7150532618588793 3.6964892918481942 1.9989288990333436 173 106 51 0.49453106479399339 50 1691 46 3846 44 3793
25634 -2.3155919431899159 3.1014541604120995 2.5201841592996144 179 140 97 0.74763954218336293 67 404 68 438 66 472
25633 -2.0210326803508623 1.5963685863244654 3.6131121371012305 178 150 108 1.3240624519927418 67 449 68 435 69 367
4880 -0.47565026089983498 3.7869972034686348 1.8840340835625613 174 116 68 0.96525778837523835 53 1859 46 3819 56 2560 60 4099
25632 -2.2843604765313588 1.6133258202571998 3.5539008957663651 158 127 83 0.90564960269416517 67 656 68 433 66 463 69 266
4879 -0.76065036561116051 3.8540496603735694 1.8402498941438519 164 110 64 0.41421555306317459 47 3772 46 3803 45 1574
25631 -1.9630280453269962 3.2985643698683149 2.4698901133202571 171 134 90 1.447415243156345 66 442 68 415 65 288
4878 1.0274557068921706 3.6165208069322481 2.048240474977816 221 150 94 1.0702327303524795 47 1503 48 2115 46 3799 45 3462 41 1417
25630 -2.331725084215146 3.0837708871777365 2.3926201049834823 171 132 93 1.6732053110092444 67 293 68 412 66 306 65 388
4877 1.143271355169496 3.5300288933668944 1.8517243507408845 167 96 40 1.0049661040461337 47 1507 46 3793
25629 -1.9188631058929009 1.6406941139375049 3.5562669957269035 181 152 110 0.5315953621829046 66 802 67 629 68 411 69 363
4876 -0.78884336272826394 3.43340097691812 2.184686223770743 205 153 105 0.47462718537376286 52 4821 46 3775 45 2757 44 2713
4875 1.1809228094051822 2.7374202245813399 2.6088693219027688 172 115 65 0.74778397313685552 47 3586 48 4034 46 3756
25628 -2.1841511582566486 3.0629872452394933 2.4591204281754671 176 137 96 0.49935535809295223 65 395 66 716 68 409
10366 14.275756859482883 -7.4965421987312784 19.137300178830749 184 221 250 0.74476517086979144 54 57 60 41 57 46 56 55 55 45 59 23
25627 -2.1796242906765286 3.2707409301559554 2.456168148838235 143 105 66 1.0092032579046319 65 393 66 447 68 407
25626 -2.3074251489998985 2.9176977438145228 2.4522807677480962 184 145 104 1.8293324958818431 67 400 68 406 65 391 66 727 65 992
4873 0.79223800415417711 2.7009922042371075 2.4846472171738303 190 136 90 0.28123799186316395 48 297 46 3735
25625 -2.1949879814640205 2.7779774268090476 2.7042559109868405 182 143 100 0.68748419590566101 67 294 68 404 69 225 70 394
4872 1.4297334777255037 2.6947762057427362 3.6994049698013645 204 151 99 2.1203275506093129 47 4366 48 3725 48 4810 44 3206
25624 -1.9576584064755176 1.6430802085101492 3.5342310803622796 162 133 93 0.4816622423756482 65 399 66 230 68 403
4871 -0.54033814622822962 2.901126230556343 2.6088666734264705 180 133 87 0.26195239884637606 47 3578 48 4050 46 3696
25623 -1.8160045527539916 1.5307759668503915 3.5818326871648685 157 128 86 0.21965468801700627 67 321 68 402
4870 -1.2493170593040408 3.1476237059664331 2.4939796426317895 169 125 80 1.998034014071794 47 3013 50 4790 46 3676 49 2139 52 3605 44 3053 43 2356 40 2210
25622 1.4204600443653477 3.3978810911185562 2.1094463151856688 177 134 99 0.66328646211731801 64 159 65 327 66 379 68 359 69 353
4869 -1.2962108965528139 3.1467297376221093 2.3627144937625935 207 163 118 1.9592760271601248 47 3045 50 3396 46 3675 52 3857
25621 2.4160997343397965 1.4018048670431236 4.0278525336244035 38 78 114 1.9102739414191996 65 1733 68 356 66 2170 67 1951
4868 -0.31489501562981087 3.0353006781463843 2.4878053932664601 153 101 54 1.0393360100239368 50 4739 46 3659 52 5316 51 2800
4867 1.2051081577762173 2.8335243035718252 2.7124029971711461 197 139 89 1.4798232346773454 47 3515 48 2436 46 3653 42 2887
25620 0.39385426369999893 3.9377669097096089 1.7739352011302119 192 145 99 1.4454788544490769 66 478 67 333 68 349 69 358 71 362 74 233 75 186 77 275
25619 0.33297668739432229 3.9998043900327818 1.7640222466935971 189 142 100 0.82266278853836328 65 202 66 288 67 350 68 348 70 532 72 319 73 426 74 376 75 429 76 344 77 438 78 400
4866 1.0461990822222038 2.8276465568413238 2.5222125983145443 164 106 56 0.73226565142221556 47 3511 48 2435 46 3649 45 3431 43 3017 44 3214
25618 0.080965074228676076 4.0192018283254374 1.7394015926424378 161 113 75 0.77403809488965103 66 329 67 276 68 347 70 356 72 321 71 328 73 297 74 257 75 426 76 342 77 653 78 620 80 450 79 1196
4865 1.0864472477951419 2.7729054285149077 2.7717554813520913 199 141 91 0.87860746579730487 48 4045 46 3633 44 1202 43 1563
25617 -2.8385895648722657 1.5423101864473976 3.572734977220946 170 139 95 0.11654976654803197 67 368 68 333
4864 1.0124056816471534 2.7740601980788364 2.6785530010028391 203 147 98 0.80067218416230324 48 4046 46 3629 42 2715
25616 -2.1926001363894136 3.060006832335048 2.5202630312365528 157 118 77 1.1896321720409655 66 301 67 414 68 322 65 979
4863 -0.75255950546034855 3.0559019253844975 2.388327303258885 199 152 106 0.4946601759871645 47 3253 48 3988 46 3620
25615 -1.4264936395101131 3.3681507663688279 2.2415480694840171 156 114 72 0.38308139007414616 64 231 65 254 66 337 68 316
4862 -0.35555629201863342 3.0015758953835849 2.6213378538963155 165 117 71 0.93221239677618972 47 3517 48 3954 46 3609 45 3143
25614 -1.183321412737748 3.0325234841263842 2.5314725235311002 155 118 74 1.4945271007513232 66 339 68 315 65 478 69 393
4861 -1.3739829186061752 2.8005073428152389 2.6923373068216914 175 138 96 0.32458960856580948 47 3264 48 3885 46 3589
25613 -0.69037110046467554 2.0953861548117678 3.3227976562630288 156 131 90 0.43676329437435868 66 352 68 312
4860 -0.60213228138994157 2.6937900752627204 2.9384593349681127 159 112 66 0.3309799629143434 47 2236 48 2536 46 3587
25612 -0.91535344386853867 2.7053661799515698 2.7379748884280177 158 126 85 0.38093588875927648 65 252 68 311 69 302
25611 1.1102867805443593 4.2311398550817438 1.5464364632190855 158 115 80 1.7106731198775258 66 222 67 203 68 301 69 172 70 192 71 317 72 202 75 97
4858 -0.66874317745084488 2.744195422961873 2.7465753844965772 158 113 72 0.38879460795909787 47 3278 50 3798 46 3562
25610 -2.260082559879725 2.7058936085727625 2.7426496849375979 156 122 77 0.57353496913522195 66 305 68 271 65 389 67 402
4857 0.99804250714673703 2.510152321824108 2.7703117454929789 169 117 69 1.7793927376841814 48 2566 46 3560 47 3413 42 3516 41 1871
25609 -2.2001574283767082 2.748548292486741 2.7210283022319133 163 126 82 0.72697151029182694 66 475 67 399 68 268 69 375 70 395
25606 15.983574664888987 7.4388910326572235 3.3964301601965752 58 82 112 0.90584356999519267 63 124 64 196 65 223 66 198 68 223
4853 0.17591321291423978 2.528720545799684 2.7948575374288982 102 69 46 2.2195274052834448 48 3116 44 2556 46 3511
25605 7.7071508692410999 2.3863143574501948 5.7085233738548053 172 213 247 1.866925521163016 64 86 66 78 67 112 68 210 65 124 68 463
25604 0.26124001426932014 3.9048559869741504 1.6904387478092842 158 110 72 1.2176713105629686 65 166 67 181 68 197 72 46 73 31 74 38 75 47 76 70 77 76
4851 -0.54850558394962279 2.8274569464595203 2.6741461607649195 187 143 98 0.56479732302170649 47 3546 48 2453 46 3507 51 1978
25603 -0.64638761913678777 2.2636779414649064 2.3754410855100101 171 188 206 1.3416398143080706 68 195 70 501 73 1479 75 1393
4848 -0.61804506408931936 2.8706695384138032 2.7184448843571691 202 158 111 0.07986846855828568 49 3168 46 3485 45 3193
25601 -2.3207872090829476 2.9889806496028153 2.5948635934060271 156 117 76 1.8388669908464448 66 173 68 181 65 153 67 3176 66 2912
25600 -1.0508527200097597 3.3222768801395595 2.2472423280119105 187 145 103 0.47810360214065223 64 106 65 159 66 195 68 177 69 168
4847 -1.5367415779347482 2.9938425144042848 2.7208193761861827 205 163 123 0.59257565825394343 48 4049 46 3479 47 3593
25599 -2.4155141184332116 2.3479965894706161 3.1149042171667691 164 127 83 0.56566180441235525 65 150 66 417 67 157 68 175
25597 14.636466627676111 6.7402141200648487 3.4115669130708652 162 226 251 1.9176497460573436 63 87 68 146 64 198 69 759 70 476 71 512
4844 -1.1489947300522894 2.853155969928113 2.6130900748644597 179 137 97 1.4838719706657195 50 3674 46 3455 52 4254 54 2641 60 1750
25596 2.6018279770638415 4.1222153236417176 1.6910810281055131 163 129 101 0.92563595274718469 65 105 66 123 67 111 68 128 69 102
4843 1.2111759220533229 2.5238002377153794 2.8773174258784908 163 105 58 0.65539417346543893 48 2577 46 3452 47 2290 44 3070
25595 0.078017353814354234 3.969552823292696 1.7760614166303661 191 144 102 1.4145504831049278 65 106 66 115 67 96 68 118 70 129 71 119 73 107 74 94 75 136 76 130 79 204
25594 2.6085791737405564 1.4482375301753654 4.1870781645542419 42 79 120 0.9959826405464316 65 337 66 381 67 215 68 110
4841 1.2251220562205067 2.5197149991376864 2.8917240358389082 206 148 100 1.4008293170568558 47 2361 48 4839 46 3445 45 3185 44 3037 40 2655 37 2128 36 3387
25593 2.7299386533328978 1.6347895465617071 2.6266240242484726 165 211 244 0.94235286807227059 65 127 68 97
4840 -0.49489608574979105 2.7481276350815111 2.7022007699062285 175 128 82 1.7920068743366631 47 3330 50 2460 46 3442
25592 -0.073944888313792423 2.0378078457563653 2.9967573001932721 148 125 94 1.6070949480901162 65 78 68 78 66 113 67 105 69 43
4839 -0.57619148948346099 2.8005866484422737 2.7349841379554451 196 152 107 0.20848204268102211 47 3316 48 3732 46 3437
25591 14.140247855479796 6.3767001801306522 3.2585640624734404 2 13 31 1.0095326955485173 63 62 64 55 65 62 66 63 67 56 68 55 69 111 70 165 71 100 72 91 73 93 74 77
4838 0.47329642493270591 2.6301063611037607 2.282162373629725 150 102 68 0.55463285765495796 49 3234 46 3419
25590 0.39745006578873177 4.1009937970620189 1.7379290841097792 167 119 83 0.61539358148959467 66 51 67 44 68 48
25589 0.64964473876096918 3.5658559109708201 2.1739993143381708 169 126 84 1.5425910178512028 64 28 65 31 67 25 68 21 69 26 70 27 71 23
25588 0.27733880345596446 3.7794508000510363 1.952126863190931 165 118 76 1.0219777512681996 65 12 66 13 67 16 68 14 69 16 70 16 71 17 73 15 75 14 76 13 77 13 78 14
4835 -0.40713298774995815 3.3557542956897275 2.2148680624429744 216 160 111 0.59690936582425247 47 4405 46 3391 45 2755 42 2920
25586 7.4200446320138704 1.4848073174519476 3.8952338269108546 156 151 122 1.7297296567120133 64 9 65 11 66 9 67 9 68 6 69 10
4833 -1.1757331990899995 3.3941285839098776 2.203383390952812 198 151 105 2.0217586254850275 47 4339 46 3369 45 2832 48 4962 44 1517 43 2905 40 2640 41 1793
25585 0.28138652549326149 2.7549824153204692 4.8421496972825855 161 132 90 0.89396591567965045 64 0 68 0
4832 -0.40051941684368741 3.281768620990027 2.3027328784695915 196 143 89 0.85661477586732948 47 4279 53 2174 46 3365 56 964 59 770 55 944
25584 -2.8973717223374762 2.7523837483916918 2.7379515873816938 150 110 74 0.49048643024908389 65 2008 66 2579 67 3052
25583 -1.7592081800847728 3.0614398550777828 2.5385681416805803 164 126 82 2.1744883517486087 64 1828 68 1258 65 1626 69 1035
4830 0.5169548172651981 3.269171445243432 2.3164814820758517 182 132 99 1.2008313630345893 49 3073 46 3306 44 2633
25582 0.10037746967892254 1.8904281857134084 2.881028664552332 180 150 112 2.1759924658919019 64 1555 67 2186
4829 -0.070296262291614425 3.3493027694856345 2.2470632154093706 182 123 67 0.30736635717996363 50 1992 46 3303 45 3037
4826 -1.0102754274312813 3.51372867102305 2.1641666715103072 164 116 68 0.50136122157719443 50 2080 46 3288 49 3894 45 2798 44 2744
25579 -3.1103539877033994 3.0448914256118482 2.5181753254002568 152 113 74 0.31773687411555346 65 1383 66 2682 67 1893
25578 -3.1276745535974526 2.9470501183394937 2.2134445043901669 144 112 73 1.7857636480071521 65 616 67 1761
4825 -0.88937299316983454 3.4910818894755375 2.1215170671470847 192 146 97 1.1636465284978934 46 3286 47 820 46 811 44 859 43 3167 51 3154
25577 -3.0453446780623366 2.9660115015669439 2.7165712843667085 182 146 110 0.10364076254387788 65 1381 67 1743
4824 0.91356321109249106 3.2235585683704007 2.2276953266221859 172 104 55 0.51870140400047526 47 3131 48 3714 46 3285
25576 4.1592541575604214 2.0814421137840657 3.1087244723444591 111 108 104 0.34983389999112252 63 867 66 2280 67 1505
4823 -1.1249245417602753 3.5133210446046164 2.0091795127127878 151 103 55 0.62402144835721263 50 2107 46 3279
4822 -1.2437719786227535 3.4837511054954913 2.0468262957770516 163 116 70 1.2405683252996691 48 3608 50 4430 46 3244 49 3988 52 2219
25575 -2.5611305516707001 2.3855391315203245 2.9828399082228936 167 130 86 0.58673597510167785 65 1932 66 2552 67 1120 68 1144
4819 -0.27734662847157909 3.1301622630911514 2.3837887969310585 168 116 69 0.20169760508743875 48 3508 46 3231 45 3304
25572 -2.5818374383387424 2.1112725692528134 3.0666561560779964 186 153 108 1.2421357103009893 65 1463 66 1593 67 915 68 1099
25568 -0.22025679635433351 1.9929338349170522 2.8766949776586297 121 120 99 2.1211302740844342 66 2358 67 2233 63 1264 64 1758 70 934 68 1643
4814 0.99110254024865241 2.9958406359201466 2.580854846038021 168 110 62 1.4211392471691671 48 4957 46 3207 44 2704
25567 -2.659032802686236 2.4110253024163963 2.9418517848484713 169 132 88 0.064195415502816724 65 1306 66 2435 67 3060
4813 -0.99136307825249126 3.2735421143598269 2.5566371429131469 210 164 115 0.7490430418731282 47 963 48 1179 46 3198 44 1203
25566 -2.3189630269709056 1.8692588225585782 3.6527665387246455 154 123 79 0.39516066964650648 65 1009 67 2851 66 1764
25565 -0.38056506737311213 3.2190127969091655 2.1713065967284741 161 119 79 0.038871700669836973 64 1744 67 1707
4812 1.1874595658690947 2.8777863828171881 2.7290948831178738 196 136 86 1.8058880411414273 47 3029 48 3944 46 3178 48 3948
10303 -1.8399526390647263 2.8757897283523355 2.6180641756814325 189 152 108 0.73836858792184512 56 3714 60 4323 57 4330 59 2566
4811 -0.19987494366401265 3.0926442944789723 2.424203909705632 196 140 93 0.91856571384373831 47 3052 48 3427 46 3176 51 3335 53 3338 54 2373 60 4464
25564 -3.0165198553305657 2.8465391134542113 2.239171571808158 180 137 95 0.23010325871301324 65 896 67 1277
25563 -2.9454360134600068 2.7347920878939438 2.7826642666051189 168 134 96 0.20769029929565952 65 939 66 2701 67 1227
4810 0.7988941979379417 2.9671887836168125 2.6279441521592113 191 127 79 0.40030534885382996 48 3960 46 3162
25562 -2.46407018694907 2.1975428933206294 3.0768923670451307 162 125 81 0.81863907954484971 65 674 66 761 67 1047 68 586
4809 1.1104452227815107 2.914258173796608 2.5634307021493914 166 106 56 0.86672118843730761 47 1897 48 2510 46 3161 45 1785 44 3164 43 3061 42 2826 41 2396 40 2480
25558 -2.4826892769815156 2.2964924600918009 3.1831269901624251 188 151 107 0.97751884380668663 65 226 66 264 67 249 68 278
4805 0.81966901358922339 3.1243926375827269 2.758797752053975 0 0 0 0.33522459922715775 48 3487 52 4333
25557 -2.7067353945531067 2.5450345587520271 2.5353195525498928 197 155 115 0.73564310809405553 65 411 66 233 67 248
4804 -0.64163344938382372 3.2630444062648354 2.3111610598731644 178 138 89 1.5300388299572851 52 3908 53 3430 60 3242
25555 -1.0196727498831006 3.2975246613489189 2.2530581641770095 164 122 80 0.54705179120937286 63 818 65 1083 67 3441 68 3091
25554 -1.8044439604518254 2.8224879936243892 2.5672395194158755 149 112 68 0.53614141147026839 64 1843 67 3424 68 2224
4801 0.2867830498481852 2.2538857093900653 3.1081031103748109 209 164 123 0.38023862530292213 47 2857 48 3306 46 3042
25553 7.6383334489271544 1.3005832767486512 4.8917197886181318 36 29 29 1.2006549455300459 64 1572 65 1209 67 3412 68 1868
25552 -2.9320460797827601 2.6183241830087236 2.7335810810086527 155 121 83 0.804686531037618 65 2006 67 3410 66 2604
4799 -0.83057237625458247 2.4048103005929584 2.8303690266179782 144 118 90 0.40370542727856534 47 2874 48 3258 46 3031
25551 -0.1911275341334126 2.1844934875104589 3.1259459137746877 150 154 139 0.78811430958850348 66 1005 68 562 64 805 67 3388
4798 -1.0839052569691414 2.4340905994896969 2.8871415465905348 186 156 120 0.1071482888925183 47 2882 48 3285 46 3030
25550 -1.2626885909240648 2.2555841823404696 3.2353437306280903 147 118 74 1.2305062051687381 63 1452 67 3374
4797 0.28960471044889569 2.2398878671070643 3.1515041833601765 175 130 89 1.2146435538009632 47 1951 48 2264 46 3029 41 1997 38 1985
4796 -1.5883486084365319 2.4859522537278398 3.0202169688701188 170 140 104 0.51042312630074216 50 2987 46 3025 52 3215
25549 -2.7245682667638507 2.1944752073467146 3.207454591132143 186 149 105 1.6676396498548878 64 2244 65 1999 66 1554 67 3352
25548 -2.4479110853191961 2.1714612457311309 3.0197161971038615 185 148 104 1.5727648176798805 64 2141 66 2787 67 3348 68 3040
4795 -1.2347355855107598 2.4275842276156823 3.0624890479007454 166 136 100 0.38092012365729927 47 2865 48 3259 46 3023
25547 -2.4649436048800641 2.6513358948159569 2.6177754013957477 194 155 114 0.97139438393356325 64 914 65 1489 66 2918 67 3267
4794 -1.3299942454622473 2.4485723045400398 2.9503040670076222 163 133 97 0.157587060719896 47 2870 48 3287 46 3021
4793 0.95692503000397289 2.0974745323137043 3.7847169804110927 181 133 85 2.2832381114121523 48 3199 46 3020 45 2727
25546 -2.1014083217129893 2.8527481340753122 2.7011488575870466 194 155 112 0.73121426069786721 64 2288 65 2218 66 2730 67 3250 68 2872
10284 -1.1561965495583157 3.0619941114553106 2.4271090906839059 202 164 115 0.87780042205202069 53 3398 56 3949 57 3305
25545 -2.041130183882764 2.0264205129479604 3.2666266610031736 153 122 78 1.6907056080037168 64 2262 67 3245 69 2417
4792 0.33818265430888278 2.2171360638227666 3.1590596015311427 191 146 104 1.5042893434179039 48 3213 50 2800 46 3018 45 2712 43 2232
25544 -2.0190489981872042 2.5926119114892394 2.8587363327910218 158 121 77 0.44221566676636237 64 2343 67 3228 68 2845 69 1182
25543 -2.1640305209710626 2.414624688362125 3.0833201998911881 151 118 75 0.94149373113672752 63 949 65 2197 66 3030 67 3171
4790 -1.805153242305376 2.4067354040732747 2.9854180888905431 155 126 96 0.36396249606374859 49 1875 50 2217 46 2964
25542 -2.2035574186154907 2.1108229255985909 2.9868104141702276 184 151 108 1.370928599266912 64 2279 67 3129 68 2817
4789 1.1228981952773092 2.0044684549567897 3.2777993409633668 190 139 86 0.52919033312934605 47 2789 48 5003 46 2962 40 2075
25541 -2.9019837778800146 2.7056809261664894 2.4353446658872056 180 135 88 0.70351664850790696 65 571 66 2629 67 3125
4788 -0.6244439867146182 2.2536456277514318 3.0096959694617302 163 133 95 1.5219029657085521 48 3241 50 7 46 2961
4787 1.0875822017329626 1.9890606478402886 3.2843726467846004 192 140 90 0.89214605515855461 47 2843 48 2831 46 2955 45 2574
25540 -2.7521050193345378 2.5532828412469302 2.8968081595687534 158 119 78 0.37106702418316456 64 784 66 2984 67 3096
10278 -1.7820196584869834 2.858562623245068 2.9301886497375493 202 163 116 1.4934340613370587 56 3806 60 4128 59 2114
25539 -2.9805649230207893 2.7591305730491604 2.471343353731362 209 162 120 0.31488782924035408 65 1284 66 1060 67 3042
4786 -0.89159648768373612 2.3824621592187309 2.9215667491268165 160 123 81 0.13089090313897625 47 2858 48 3313 46 2951
4785 1.2215125975607852 2.0697704638548249 3.3367752951449949 192 141 88 0.35739081590387539 47 2835 48 3253 46 2948
25538 -3.1753402273380456 2.711301009556125 2.0379807985241252 188 149 110 0.30155127332766513 65 1359 67 3023
25537 -2.9982000506515352 2.4854988123038524 2.4161714596006907 166 127 88 1.0867255873093413 65 1279 67 3019 66 2638
4784 0.79640404077793925 2.1416633527641951 3.0831588335250393 202 154 106 1.4209244771458487 48 4899 46 2947 40 2198 41 1977
25536 -2.7054487455245875 2.1197322669771492 3.286727397389539 158 125 80 0.38590094084503351 64 860 67 3016 68 2750
4783 0.38772898502362602 2.1834023225630101 3.1461703330592874 185 138 94 0.45815349511263814 48 2257 46 2944 47 2294 45 1579
25535 -2.8490114045308195 2.3721536555385443 2.8651996339352994 180 143 99 0.72189952508107258 64 603 66 2646 67 2989
4782 0.58406040485234445 2.4556879007794175 2.8775848001572664 174 123 76 0.87760843699438607 53 2679 51 2027 48 2284 47 3385
25534 -2.7328252397754946 2.4062824854500731 2.307739242998931 180 141 100 0.38812087659630523 65 1907 67 2935
4781 -1.2729185524980455 2.68867924372304 2.8387866836354143 197 163 126 0.28402528358736373 47 2260 48 2555 46 2917
25533 -2.5527438718424866 2.829135924990243 2.8963577989988973 208 169 128 1.6103104700889042 64 1476 66 3022 67 2885
