# 3D point list with one line of data per point:
#   POINT3D_ID, X, Y, Z, R, G, B, ERROR, TRACK[] as (IMAGE_ID, POINT2D_IDX)
# Number of points: 373, mean track length: 4.801717071487122
4472 0.7313937179898149 2.9626992358830755 2.5154122219858701 164 104 54 1.097749521964883 48 3980 46 3224 47 3080 45 3348 44 3105
7036 -0.87490742727276272 3.7733872551106278 1.8911464502746476 155 116 77 0.35029171487106825 43 545 42 761 41 898 38 799
27582 -0.15547967693069736 1.9316439127317089 2.2478312896616925 45 34 32 0.43238480935132512 77 107 80 121
5927 1.2227858352509848 3.6076290888263336 2.0656637535495586 177 114 63 0.080113082825151338 45 2515 44 3340 43 3639
25156 -1.4086835350320996 1.5373511671592015 3.6605746174552047 176 148 111 1.4531010575450241 64 1237 65 779 68 1008 67 1021
4403 -1.1617688253716469 2.5381441421840196 3.0912873855489051 163 125 88 1.5591003718878318 48 2283 46 2794 47 2204 45 2678
9895 -13.715640898894812 -7.3760389662689718 18.707936038198685 56 46 45 0.24287752510738406 43 185 39 154 40 157
6967 -0.23203289104728331 1.8659459118638015 -0.066081835499132477 111 93 83 1.8216521626178583 43 79 42 57
27513 16.397634033453993 19.549618317048374 -1.5677659014894445 98 131 148 0.48196555343948011 76 408 78 481 79 519 72 433 73 486 75 408 80 555
5858 0.31380747405243908 3.4314347024096632 2.1969819543849081 188 134 105 2.4519820669410057 46 1997 44 2759
26611 2.7418964488976738 1.5361118791596586 3.3528527010208564 129 98 67 1.3725841553816456 70 125 74 85
26404 -0.76859822274725698 2.0814807689763879 3.1474767025485266 157 142 110 0.8466012507320636 69 1293 70 473 71 755
5651 0.23876127926282581 4.0598185185288127 1.6439790749724141 163 102 55 1.2413756009973591 45 667 46 2395 44 1323 43 1232
11838 -1.3772760798158046 2.8040019293562572 2.5815020073297692 174 146 106 0.40363181502640472 34 2129 32 2114 30 1660
25283 -2.2173776601438693 2.2574565236533055 2.9471429938891531 188 156 117 0.45606295807437702 64 144 66 172 65 156 68 300 67 323
4530 -0.46239791648952494 2.9662624245917457 2.5309577085676707 164 117 71 0.12145843222222678 48 3940 46 3646 47 3508
10022 -3.4209123790482767 0.77846916798821109 4.0936100339413626 194 234 234 0.48264300765295981 38 1999 39 2352 40 1592
7094 1.434754261785457 4.0483996192698655 1.6454229552456245 176 109 54 0.49395796584886659 43 1979 42 1932 41 1837
27640 -2.0701333603835379 0.96370450853583234 3.9783534433331154 132 90 49 0.75293550086072081 79 1685 80 2140
6887 -1.6637242073661793 3.4938685983429933 2.0640149872545392 183 132 85 0.84001146362559487 54 2426 52 3995 57 2215 53 1983
5985 -0.34100939894868421 3.66743980799761 1.9641612270904967 193 147 98 0.46179033731972891 45 3785 44 3702 43 2789 42 2414 41 2330 38 2384
26531 -1.4703699594825359 1.5088586052280206 3.5909048164056001 158 129 89 0.85815001258652401 70 560 71 573 74 600
5778 -0.58739743858328253 2.8320993901120821 2.5384704319797158 160 116 79 0.11695571552329605 45 1833 44 2096 43 2518
27040 3.3633645144997177 6.4254979849327292 0.0028786366192936133 172 120 77 1.6862145268752111 72 285 75 267 76 281 77 310
6287 -1.2482064924125085 2.4667109023276725 2.7832160723135444 185 159 132 0.50331854027963352 46 3006 47 1975 43 2180
7035 1.0177085824852157 3.6663692688814344 2.0247634413345166 196 136 86 0.7162127721786149 43 464 42 711 41 763 38 451
25155 -1.9110406513664286 2.4971496197389058 2.9013424641029686 152 118 80 0.20359891004803563 64 1027 66 1353 65 982
4402 0.43284635735656457 2.3743477307960226 2.9726183473781318 173 125 85 1.2730093270040508 49 1836 46 2792 47 2356 52 2042 50 3103 42 2351 41 2265 38 2070 39 2488 40 1399 36 1519 35 2344
9894 -15.917865353152566 -6.3764348949204308 17.728536791537731 66 66 71 0.66657781669546878 38 151 42 171 39 152 40 248 37 139 36 141 35 124 33 142 34 141
6966 -1.2281642488386375 1.3279437494879287 1.1216207401827196 89 78 76 0.11769219335392382 44 54 42 49
27512 12.396751995528893 10.729496625469512 1.1814834025909129 0 11 37 1.4527809725502987 77 359 79 508 80 454
25282 16.154685455307725 2.6050422765673464 11.728545087363342 143 196 240 1.0954972023301093 62 118 64 162 66 154 65 125 68 178 67 300
4529 -1.2646844207386303 3.0591816316453069 2.4910923483062382 180 136 87 0.80318653237957705 48 3919 50 3872 46 3638 47 3516
10021 -2.6391510603316641 1.0896129653508337 3.8445401106532833 169 198 214 0.44248877531295733 43 1751 39 2338 44 2280 40 1586 42 1707 37 1626 36 1494
7093 1.4434789437704743 4.0420692214354847 1.6351876229769793 201 134 79 1.1998648065772735 43 1977 42 1928 41 1835
27639 -2.2576837428963037 1.1672407543350034 3.8836328116438841 135 92 50 0.49374928808856777 79 657 80 2060
6886 -0.55907588801227925 3.783090238470753 1.9554094336421983 191 134 81 0.73533601016922445 51 4711 54 4059 52 3994
5984 -1.055338894067434 3.8412901272883051 1.8547882281839128 191 146 107 0.36170946190985775 45 4018 44 3700 43 1622
26530 -1.2398501354719378 2.9151899877887959 2.5173772173176432 150 111 64 0.66981911450718101 70 467 71 535 74 589 73 440 72 385 75 575 76 505 77 563 78 950 79 1018
27382 17.195243098759718 20.077614818855942 -1.9201560343934612 63 91 103 0.97865179651661649 73 671 77 615 78 635 72 976 76 409 79 892 80 945
25154 -1.7709429782143398 2.3262967392335332 2.8939758547796774 186 158 119 1.3117164970096054 64 1095 66 1337 65 1500 68 2514 67 2291 69 1025
4401 -1.5050669148134066 1.5248431595591694 3.5550605581607693 147 135 123 1.1722828349198238 48 3025 50 2951 46 2786 51 3087
9893 -14.503857557408374 -7.6417837784978797 14.633891236468248 36 44 55 1.1787213798769567 38 146 41 176 39 151 42 176 40 150 37 145 36 121
6965 -0.41292589830511423 0.82914799779045023 2.3644646754896708 189 208 215 0.40813599428249037 47 1048 42 42
5856 0.23285749590927401 3.1878328535310003 2.4366909598038391 0 0 0 0.28503755560784155 45 852 50 3257
26609 -0.23942245076760127 1.8129855223542228 2.5748004803239399 202 255 255 1.6436170796020755 70 61 71 32 73 27 72 24 77 20
26402 28.92830574725556 8.4273939856497186 7.282848310517867 113 146 171 0.60601977317112987 67 398 68 433 69 441 70 434 65 324 71 356
5649 1.1674501421348618 3.8669690869806517 1.8649551888690108 176 113 62 0.80110153614042678 45 1116 44 1312 43 3449 42 1680 41 1305 38 1156
25281 -0.61788932010295738 2.292498056241441 2.3949294098864558 167 189 213 1.703066351295297 62 25 64 63 65 108 69 309 71 320
4528 1.0001459272107995 2.764656081225942 2.7972747937212397 199 141 91 0.8613677846824026 48 4045 46 3633 44 1202 43 1563
10020 -1.2926406394482211 2.9664537930874331 2.4894740176236758 164 138 111 0.30964753498879671 43 1727 39 2322 40 1487 37 1960
7092 0.58698348468832828 4.3766322849503707 1.4803297061008012 200 140 90 0.75475286321703816 43 2133 42 1925 38 1760 39 1422 40 3042 37 1115
27638 -1.3258632905614385 0.7250294868977355 4.1881441863459239 171 132 91 0.086207053048680898 79 1928 80 2059
6885 -0.48521352268435525 3.6660803801125668 1.9568711013067879 171 118 64 0.9718143766331474 54 3806 52 3967 56 3051
5983 -0.41250699318636808 3.6661498209579424 1.879018289098138 194 146 100 0.58564782361534395 45 3789 48 2198 44 3697
26736 22.387981421497614 18.288188841017863 -0.23326524516329211 194 225 251 1.3509891112108632 70 7 71 13 74 9 73 11 72 8 75 9
26529 25.774171250136273 12.619077570620252 5.0317235807816001 66 101 123 1.7498762341285794 64 303 73 312 72 279
5776 0.61832751691303522 4.1962697962406343 1.6028690379886676 173 110 57 0.34071114193698865 48 2731 44 2082 43 3596
11268 -17.776142512385491 -3.9790186362573077 11.006551263835323 83 79 93 0.69201727249729916 37 205 40 238 35 355 34 253 32 260
27038 -0.62381514440604002 2.1212288281895368 3.0733806181377381 138 124 97 0.44786353739159246 74 198 76 233
6285 1.3624312238925527 4.0035985707757504 1.7403610554077611 162 95 42 0.17587976912686287 44 2145 43 2032 42 3390
25222 4.3969506710150563 2.2744655123760147 2.9786306053190565 107 111 109 0.57997755782768745 62 1594 66 2268 68 2078
7033 1.8204541680578219 5.8405866206885442 7.095069264635752 167 100 45 0.79720941799899991 44 544 42 690
5924 0.34031425498236961 3.9284410946443704 1.8067788321101284 156 96 46 0.17335859840372358 45 2013 44 3302 43 3287
26677 -2.1852469362642242 2.7168798102154708 2.6994528283266606 159 112 65 0.47263194890759908 71 1111 74 955
11209 -0.024535231703899867 0.85219225987496261 3.1550392394964146 0 0 0 2.3540321148841139 55 624 57 145
6531 -1.724304101952115 3.2265210772783126 2.308446056245423 169 123 74 1.2326459303206665 54 1905 52 431 56 1246 57 3782
27077 1.4744441969699533 5.4609252282454852 0.6473922932976669 185 128 84 1.5898770460681046 72 454 75 623 76 614
6324 -0.64275324614537421 3.6231612591908475 2.0413445312029457 178 134 89 1.0846832586439181 45 3912 43 2578 38 2277
25261 -0.73421679469588808 2.3531291665085403 2.7731963061132587 125 145 136 0.61401771490796808 62 1760 66 3046 65 1876
10000 -0.30353086559315984 3.2728958768003835 2.2303949780625874 168 128 93 1.0323038542614167 42 2925 39 1902 40 2589 37 2502
7072 1.4486979935290039 3.1598687871435054 2.3887263676151242 188 131 86 0.81700040662708717 43 1655 42 1404 41 1439 38 1018 40 1117 37 898
27618 -1.2237427151272864 0.69709783025815275 1.6158058693025992 161 100 53 1.623532249877758 76 1202 80 1279
25004 -1.2576742160106704 2.3383916678898244 2.9811598845931462 156 131 100 0.65236292156758169 64 1976 66 1902 65 1066 68 2376 67 2189
4251 -1.318938460848434 3.3883203432855988 2.3028287608009252 201 154 108 1.1765858165259708 48 1144 46 1870 47 979 45 840 44 3161 43 1356
6815 -0.90915779132976182 3.41840224651158 2.1539218411388741 165 107 61 0.79906598398113904 54 3181 52 3199 53 2190
7071 -0.5470831864766551 3.8499983770832791 1.804951891464845 177 134 92 0.011188058380450498 48 1050 42 1346
27617 15.170562832363691 15.760078952102441 -3.2775080574425051 170 164 155 0.57398114102290043 77 1208 79 920 80 1274
6864 -1.2077993676092895 3.8039819183133941 1.837192038566694 183 135 87 0.98698732012502222 54 2813 52 3786 56 2237
25003 -1.9429249894584038 2.4188630880804847 2.8889390816093159 160 128 89 0.69729365325691262 62 454 64 1953 66 2731 65 1422 68 980 67 606 69 613 70 391
4250 -0.61333910039274309 3.3085232395851611 2.2703165162201322 216 164 114 2.1048501500351087 48 3657 46 1866 47 4385 51 3731 44 3131 45 2874 43 3139 52 3448 54 3425 56 1544 56 2911 57 3149 60 3026 55 2712
25259 -2.5262991666164627 1.9518239711530823 3.0870673320907822 160 128 89 2.0260159889511193 64 2152 66 2974 65 1936 65 1940 68 2920 68 2928
9998 -1.0436552194255839 2.5216149496765774 2.7719075725280127 185 163 140 1.2947213555241091 42 1697 39 1843 40 1497 37 1209
7070 -0.080438917215007524 3.6598057806089686 1.9503695027860877 169 121 73 1.109210578284916 46 1468 42 1335 47 1400
27616 17.214171895185899 18.480731991809069 -0.8846865632535208 93 114 137 1.5983470003140972 72 950 75 1267 76 925 80 1251 72 1057
6863 -1.0655904247413661 3.985332349707889 1.7216699237175639 147 99 50 1.4737838146207272 54 4065 52 3694 60 2269
25002 -1.9410387537431526 3.0515807199638663 2.4121669792627634 182 144 108 0.89992550977689678 62 1871 64 1919 65 2161 66 2047 68 2553
4249 -0.55008828413037636 3.3464228826583464 2.2111505196667864 214 161 111 0.36337164620323431 48 3670 46 1847 53 1607
9741 5.6692948747567531 -6.3479336334015821 19.08518755456711 156 180 206 0.97575236534809273 52 1954 54 2143 53 1035
27073 -0.25723343120088565 1.5636550397478721 2.2959783838535737 122 140 144 2.3323537846162652 72 978 73 1034 76 590
6320 -0.72002810395173122 2.8242035642222145 2.5728926611742442 193 155 115 0.94026198119905124 44 2475 43 2503 39 2557 40 1994
11812 -19.496545302146789 0.087682249901875522 12.189691167700827 64 77 87 1.6467280626164642 35 873 32 1169 30 1107 31 1464 29 1389 28 850
25257 -0.89369049853871929 2.3195327558608567 2.8763059839470437 161 160 139 0.5518721042415442 64 1210 66 2969 68 2635 67 2507
4504 -1.6542405073372457 2.9670238090852386 2.6618034491378872 205 163 123 0.60787147885709147 48 4049 46 3479 47 3593
7068 1.4821731513995806 4.0327883237567956 1.6981026788975351 179 112 61 1.90688030872239 43 1875 42 1275 41 1354 39 2207
27614 1.8922698492199039 3.0211976463953851 2.5176745595914514 135 92 58 0.26092034825183086 79 1162 80 1248
6861 -1.1877531167762572 3.6854427501787117 1.963226395496797 156 104 56 1.6835212004795461 54 1371 52 3680 60 4015 51 4410 56 1677 57 2306 57 3998 55 3117
5959 1.0049191721594739 3.8291101505095413 1.8849483922903996 169 108 53 0.30363699822122009 45 2074 44 3546 43 3910
26712 -0.68705468221567467 2.1517619677390751 2.4390763176998971 174 206 227 1.8166372027475028 71 1151 74 1337 73 1505 72 1194
25000 -1.7726953950584234 2.9568521469990543 2.5411135728730585 161 122 83 0.32112887455109501 62 1120 64 1822 68 1452 66 1185
4247 -0.37530086660658235 3.1077935200463793 2.203988792355088 170 116 70 1.2512045004752688 48 1186 46 1845 45 3286 44 3188
27357 17.056729231731435 20.122037130421013 -1.7416974188061936 59 72 88 0.89685957978038766 73 314 75 269 76 179 78 367 72 272 74 345 79 349 80 370
25256 -1.898214362551047 2.9626423001944313 2.4771959677461037 148 111 69 0.69238843847764642 64 1835 66 2968 65 2135 68 2504 67 2216
9995 1.5189472490217495 3.9734800402171597 1.7733425758000727 169 108 55 0.75157837708843334 42 3262 39 1823 40 1889 38 1832 37 1737
7067 0.41731563016724665 4.3426421333611689 1.4311189882440742 175 117 65 0.75067308765595797 43 1036 42 1250 41 2922
27613 2.2155575543972361 2.7360774610438692 2.667753222223026 162 124 95 0.72306878850599077 75 1251 80 1246
6860 -1.5437168972565898 3.5977978470981147 1.9973086178760073 169 121 72 0.50586900967177562 54 2396 52 3671 57 4072
5958 -0.19601235733302677 4.1195592986284284 1.6443789574159038 178 132 106 0.7731726081386382 45 4121 44 3540
26711 -0.13419058284847543 2.538592111576405 3.3151931454785433 247 253 247 1.3855814177492158 70 946 74 1322
24999 -1.71767019652071 3.5901058201022367 2.2327462096189366 179 144 104 1.2401449799539399 62 1307 64 1789 66 2008
9738 -0.59556793504108019 2.2014803708194144 2.7894465181688206 163 145 105 1.4108492384698927 54 777 55 1071 53 1016
27070 -1.5341172693750302 2.2628408487189668 3.0182780710960424 142 98 53 0.99197069416069783 75 838 76 542 72 881 77 598 78 976
6317 0.98732310138853563 2.2418384194213701 3.0912043350740932 171 128 86 0.53394102527007825 47 1092 43 2469 46 1133
25254 -2.0379887177574294 2.2603665039327123 2.8923986450421255 197 165 126 2.183204731370624 62 1323 64 2379 66 2850 67 2952 69 2384
4501 -1.2593314758043159 2.8307771254445102 2.5701849720629251 179 137 97 0.90553563357491218 50 3674 46 3455 51 4254 53 2641
9993 -1.159314399508359 1.5295627070565367 1.9596775841130429 188 220 233 2.9452772801988614 43 3766 39 1816
7065 0.96867398778288782 3.8712583381987788 1.8787504625499811 175 117 67 0.70975074966450957 45 1043 42 1199 41 1182 38 949
27611 2.3929146752474955 3.2401363094584328 2.4464179760387945 136 94 69 0.19670574528526386 79 1131 80 1217
6858 -1.5865572686243909 3.6181245416320826 2.0013804640729465 152 104 55 0.95704711647922858 54 2464 52 3664 60 1176 56 1275 58 937
24997 -0.19537235178680895 1.9007921624191173 3.255987022532179 140 119 90 1.3274984474252878 62 1269 64 1765 66 2418 68 2116 69 1712
4244 -0.55078444527185733 3.194975377336803 2.3322435494049722 172 119 67 0.74458067761321556 48 3368 54 2194 46 1834 47 2984 44 3229 43 2932 60 1732 57 905
6808 -0.49114625705827825 3.5988415773853433 2.0810878902203385 157 102 48 0.87119971825419429 51 5090 54 1671 52 3110
27069 -1.3633320562690718 1.7853584564813914 3.3400721974292411 172 130 82 0.8752942725786097 72 467 73 541 76 534
6316 -0.76405394344395328 2.7361223361474978 2.7082204203307976 194 156 119 0.49632162071811159 44 2417 43 2455 42 2038 41 1978 38 2165
25253 -2.0517445423300122 3.0404071939724906 2.5898772701931358 188 151 109 0.58397187905413905 64 2315 66 2836 65 962 68 2458
4500 1.1245399889941254 2.5133106991350278 2.9077574728075102 163 105 58 0.64075333914553434 48 2577 46 3452 47 2290 44 3070
9992 -13.082170154873044 -6.0715361681643696 12.661737050025396 96 84 88 0.67369432914940963 41 919 39 1799 37 1792
7064 -0.29835520653253766 4.3065258504849719 1.6214447101612242 181 122 78 0.79668636173976637 43 1379 42 1191 41 3298
27610 1.0463715497627548 3.510555730526661 2.1443819771331856 139 91 51 0.14543717564918945 79 1164 80 1208
6857 -1.0165971161017844 3.7290701609480306 1.9004452470344193 197 144 92 2.2766344980937032 54 3558 52 3660 60 3741 56 3945 57 1208 55 2809
5955 1.154112515583918 3.7628483479520902 1.9658783601756222 152 89 38 1.0449152971122273 45 3610 44 3531 43 3819 41 2792 38 3027
26708 -0.65304550841843745 2.3776288702381532 2.923365802625173 136 125 101 0.67101150923944242 71 1399 74 1312 72 1137 75 1318
6522 -0.68134904398612761 2.0753990438987358 3.1279367007252974 196 171 130 0.28401352095785437 51 171 60 2771
25252 -1.9832988496057573 2.9760500167296158 2.4717672133305704 184 146 109 1.2455247873039321 62 885 66 2827 65 2145
4499 -1.4436489759672335 2.8401555848844096 2.6583265739893287 172 133 90 0.36448161115717231 48 2600 49 3107 46 3447
9991 -1.3197308753894186 2.9723905039806349 2.4974502079908065 190 164 137 1.255529228280255 42 950 39 1741 40 1488
7063 -0.34222118902356669 3.9253737477284263 1.417666757256328 197 144 101 0.50327086035889823 45 644 42 1175
27609 2.6374292047126593 2.716675317709937 2.6984253300590746 163 127 103 0.66265169011449432 79 2019 80 1207
6856 -0.95714305327091986 3.6930987401474136 1.9198029982910425 183 130 80 0.30375199045544438 54 3525 52 3638 53 2835
6806 -0.69578854974425686 2.483857370700215 2.7644728523837703 142 112 87 0.20980483200897618 54 1325 52 3101 53 1927
27066 -0.36540236812327048 3.2034215860618831 2.3092618871106469 159 111 63 1.3102579227352791 75 377 76 525 77 644 78 537 79 1000 80 1372
6313 1.3546734398522544 3.6957275648416736 2.0948615022925043 203 140 89 0.48567438714309041 44 1429 43 2443 42 2964
11805 -0.53641483937610202 2.8932796067915856 2.5403204904783898 170 132 96 0.41728908515982294 34 767 32 958 30 1123
25250 -2.0036293554758826 2.9101925873831647 2.5434753912560804 158 118 82 1.3013645902935993 64 1011 66 2800 68 2451 65 988 67 2915 69 2346
4497 -0.59602635896875056 2.7270898003246855 2.6691381894386224 175 128 82 1.7548018822317628 50 2460 46 3442 47 3330
9989 1.2962136256061332 3.1784558843593507 2.3651083713858791 155 103 56 1.3402531808516089 41 2463 42 3542 39 1677 40 1086 37 918
7061 -0.10322344971247707 3.8259217367129175 1.7288125984843608 192 138 94 1.4886298372845566 49 1895 42 1169 41 1443
27607 0.33914661687354708 5.2514219873408186 1.05714644857964 220 159 98 2.6928289489368611 78 1238 80 956
6854 -1.650057876505729 3.5430334744008927 2.0228104262991469 158 106 56 1.1964329557899966 54 2393 52 3635 60 1923
5952 0.023440311417842124 4.0481820402689843 1.7170681646447599 166 109 64 0.13939386867197323 51 4622 44 3516 43 3271
26705 -0.2852841838147856 2.1590243709714381 3.1128365895973076 149 168 142 1.6468128716745216 69 665 74 1290 64 805 66 1005 67 562 68 3388
24993 -0.62050724378981637 1.3729659649711594 3.6715975387785389 157 133 97 0.5790618381592163 62 1734 64 1674 68 2579 67 2499 70 615
4240 0.96028238809113142 3.2020401465840664 2.3319537429876518 207 140 87 1.0728594826231175 48 441 46 1809 47 810 45 460 44 542 43 548 42 854 41 590 38 505 39 829 40 407
9732 -1.1923349450894087 2.8701344616020958 2.5795137966099717 163 121 73 0.98969640279883375 55 942 60 3282 53 881
27065 -0.52614000481649636 3.1756068162258986 2.2522889659492451 167 120 68 0.17370898886046104 72 400 76 523 75 376
6312 -1.3561882188881782 3.2004501088496409 2.3131442842436023 191 153 117 1.3012102305036302 44 1946 45 1746 43 2426 42 2397
25249 -2.2172356901546104 2.7377665743091093 3.0195068480344016 192 157 115 0.63778250740133524 64 2265 66 2775
4496 -0.68144355202334683 2.7798306455014177 2.7071874630331911 196 152 107 0.20962798293862236 48 3732 46 3437 47 3316
9988 1.5276656059832623 3.3247203187215573 2.2740278166837937 210 154 105 0.76190257327799682 38 1404 39 1650 40 1054
7060 1.3900429705120307 3.3460545036434168 2.3393813985114762 179 115 69 1.0655988635922815 43 1098 42 1124 41 1168
27606 12.718218459028126 11.052373836554002 1.100612575892594 171 207 239 1.1659146877636197 78 631 79 515 80 953 77 1185
6853 -1.2289158596762735 3.6737613058678518 1.9844347178396662 157 105 57 1.1436380842742639 54 3566 52 3627 56 478 55 2261 53 1937
5951 1.1014029635300615 3.7850521250622364 1.9336149567586327 177 115 60 0.15240584683030425 45 3686 44 3509 43 3204
26704 -0.73569115285633258 2.7653319844819446 2.6624991902905264 139 104 61 1.2055921463710786 71 1144 74 1278 73 1543 72 1112
11236 1.32933731677389 3.988727665737283 1.7608003772174783 198 140 90 0.50467788667147984 36 259 35 165 33 259 34 292
27064 0.23380187405073843 2.2473369642407546 3.0571110830769079 157 118 77 0.82512923842992825 73 629 75 594 76 511 77 572 79 1020 80 1346
6311 -0.64255000426531628 3.5127935961293275 2.0707895827414338 170 126 85 0.50565114105730469 45 2951 43 2417 42 2844 41 2720 38 2369
25248 -2.2480303315684802 2.2206754610239834 3.1007835002673767 190 159 113 1.9308858000173177 64 2287 66 2770 65 1386 68 3190 69 849
4495 -0.71966609276551807 2.7728753242895761 2.709619087184485 162 115 73 0.37337267773733851 48 3721 46 3422 47 3309
9987 -0.044871548626265641 3.6613556450278333 1.9244966161342123 163 116 71 0.97215815082320489 41 913 39 1574 40 2310 37 2037
7059 1.1606191164882769 4.163483349982509 1.5762596277653536 179 113 60 1.0052413634135922 43 1045 42 1116 41 1108
27605 8.8339339859978541 12.642621793721245 -1.450220148621447 188 146 89 0.7862690078448703 75 597 76 567 77 408 80 940
5950 1.041362280468705 3.8025187569876446 1.9331137033181593 176 116 66 0.061778048194428885 45 2008 44 3508 43 3202
26703 -0.20732765768939163 2.3604676724143165 2.1083594766928404 113 97 75 1.5834608300964637 71 1024 74 1197 73 1246 72 1013
24991 11.802645740285399 1.5827750220746379 10.844611774749124 98 129 166 0.9524543487521997 63 1775 64 1642
4238 -0.48932772272523389 3.4298062393920845 2.2677870279642018 222 170 120 0.41355273372753265 48 3537 46 1803 47 1689
9730 -0.96495428574997788 3.4395660431161583 2.1434364250723754 203 150 100 0.20066996956028743 57 1519 53 861
6802 -1.1820952341910465 3.2727134005213729 2.2716071857371465 154 104 57 0.67794540725116303 54 3196 52 3059 56 2970 57 3246
27063 -0.57436930019660148 2.5213029837725189 2.6990389027384452 134 115 102 1.5117611943941498 73 622 75 584 76 508 72 550 73 623
7058 -0.32349089402067382 4.391813482834924 1.4738020880103251 184 138 107 1.2962039723262944 44 426 42 1106 41 488
5949 1.1154470142983059 3.7802618472717011 1.9183606852691513 206 143 90 1.46649080385442 45 3692 44 3499 43 3214 41 2791
26702 -0.1073978637028027 1.665797510833867 2.3943936722440178 138 107 79 1.5224415252315844 74 1194 72 1169 76 1873
27062 -1.9713399502048101 1.8741320271425033 3.3350351227673256 197 145 95 0.8055075476981447 75 523 76 483 72 497
6309 1.3097487007456452 3.2134942213576903 2.319978133660789 196 134 87 0.8257692754610878 44 2826 43 2405 38 3091 39 1662
7057 0.18082658046557365 4.4895586383207933 1.4505236447393837 170 110 60 1.408380886131295 43 1044 42 1101 41 1034 38 1270
27603 -2.0172313313859891 1.6425171827880161 3.4841662841172329 135 90 51 0.59215856552452584 78 814 79 321 80 910
6850 -1.6362037096065152 3.6233749314849439 1.9715974907006641 171 120 67 0.65889183069924318 54 3768 52 3568 60 2408
5948 0.44411349939341582 4.0269752160715448 1.723477588351189 161 104 51 0.23959958280831092 45 2528 44 3498 43 3399
26701 -0.29929363466740544 3.385331546597234 2.1767560125939163 140 97 46 1.0092554108360254 71 1043 74 1187 73 1226 75 992 76 1153 78 1147
24989 2.9579707095587122 1.4898398671564297 3.7586278418584946 183 210 225 1.8174255891000533 63 616 64 1626
4236 0.91693093947917292 3.2875757431525012 2.398560034137875 184 114 62 1.730502038925928 48 2040 46 1791 47 1686
9728 -0.98116000165923156 3.3300657841172754 2.1935508947373386 0 0 0 0.46307391542272047 49 1674 55 766
6514 -0.78666739891955895 2.5307638259046743 2.938621475673552 192 154 116 1.7565889394337064 54 487 52 234 53 434 58 262
27060 20.141589343591431 14.130481035011067 1.6633903162906816 117 122 162 0.30802541566360603 71 436 72 404 73 491 74 499 75 410 76 406
11799 -0.36574386072195458 3.6131757795577757 1.9978687250774219 187 140 96 0.50065768361780949 34 723 32 742 29 1460
7055 0.503457006461558 4.3120352706990044 1.513695335390473 172 110 60 0.50777968462363432 43 1083 42 1097 38 931 39 1825 40 1149 37 1092
27601 -0.5628615674677746 1.9621730280033391 3.2575387813249006 142 112 84 1.6082640114859679 78 1304 79 755 80 867
6848 -1.0200107763015653 3.7383414799790495 1.8780443378225653 158 105 55 0.20729492471173463 54 3749 52 3562 56 3489
5946 0.16137769954681525 4.0495246174053348 1.7318837699807625 162 101 57 0.71245975302046682 47 3863 48 1523 44 3489 43 3212
27059 0.60351274359309881 4.2796611123091406 1.4289542429139594 172 106 54 0.71769692437248656 72 419 75 437 76 402
6306 -0.53277509879392948 2.9185254637431153 2.512681178168918 186 142 105 1.6731949385571341 44 3892 45 3110 43 2365 42 3598 41 2124 40 2203
11798 -1.4476299779862221 2.9061090583146694 2.5866750934565426 210 176 138 1.3426975125052405 33 2177 32 722 30 759
25243 -2.9164937076732715 2.1702260574974646 3.0421460084853993 133 100 59 0.33038556305607786 64 1707 66 2633 65 1989 67 2682
4490 -0.81821497629869255 3.383232208519098 2.1283783512151846 163 111 63 0.49393720065023689 49 2996 51 4996 46 3390 47 3120 45 4134
9982 1.5728164503077011 3.8587370655973139 1.8518267598802403 176 115 58 1.1964892798021471 42 3158 39 1461 40 1738
25240 -0.47102471954760167 2.6608916267775244 2.6339183736252991 143 110 84 0.53159541362945972 62 1719 64 807 66 2408
9979 1.2359557937214816 4.1727062998337621 1.6249258249427396 177 117 63 0.90490999689463225 41 1643 39 1415 40 1623 37 1594
27055 -0.71327533766451934 0.31728288799838861 0.58321628091835587 169 180 184 1.0589846542717605 72 142 76 391
6302 -1.5198735164563466 2.3087545678254591 3.0273256795239147 164 144 119 0.72418531020077892 44 3978 43 2306 42 2145 41 2067
25239 -0.29547493971259087 1.9677417716655263 3.2529150234451736 177 158 116 0.15160028286806077 64 1736 66 2407 65 2318 67 1993
9978 1.6259790606803679 4.0107299540031622 1.7721782097796144 171 109 58 0.6790407571091438 42 1934 39 1389 40 1697
7050 0.61839706701455044 4.1914838923209832 1.610334478773902 170 113 62 0.2017134092274358 43 434 42 1018 41 781 38 603
5941 0.76134885787137963 3.9046492967045396 1.8316027721311183 176 115 60 0.11140094292294254 45 2306 44 3442 43 3223
26694 0.30766208910639664 2.0658995682633012 3.2007996294588672 172 145 98 1.9072503088371981 71 1164 74 1046 73 627
27054 24.455569164148855 14.402509139915093 0.91808240351630521 174 201 225 1.2527620332034646 71 260 73 355 76 372 74 430
6301 0.075231857070231389 0.31759688678683362 4.4650663805906436 218 226 235 0.96964309412395977 45 384 43 2290
25238 -0.20229025383947805 2.0849361358370486 3.1892822996159835 136 123 81 0.90929703457036515 62 1534 66 2401 69 1681
9977 1.8939078061419523 3.7127254485129488 1.993912068449847 179 110 55 0.38816228670097119 38 1251 39 1384 40 1626 37 1555 36 1052
7049 -0.011079159985060791 4.4418559158662241 1.4300535141699136 153 99 56 0.28684492199962519 43 1073 42 1006 41 1291 38 912
27053 -0.57710854552057878 1.9918278322555336 3.1903201755012711 160 137 107 0.55189571235296353 75 383 76 364 72 382 73 441
6300 -2.9283377497724232 0.84385404441988709 4.2605702027871102 183 206 220 1.4082160553807324 45 4095 43 2289 39 2376
11792 0.029061268856630663 3.5631002136075098 2.0363854319386943 198 147 102 0.58208131499591542 34 608 32 639 30 632 28 1455
25237 -0.33679157668375492 2.0824445557743796 3.0680105791434968 139 133 102 0.27125963008955217 64 1354 66 2396 65 1809
4484 0.075340600779984168 3.2224272797108067 2.3913073817737516 189 127 78 1.6483944335388589 50 3255 51 3677 46 3344 47 3182 52 3381
9976 1.8865907022351178 3.7317361844729149 1.9586460460303647 182 113 58 0.73412333164345367 38 2141 39 1374 40 924 37 876 36 1054
7048 0.032902153003324212 1.9448291265598832 2.4218892305880231 239 239 248 1.5271274536140986 42 985 41 662
5939 1.0804665370658892 3.8345095401074754 1.9064754162304591 206 144 93 0.65981268109075664 45 2087 44 3438 43 2441 42 2997 41 2842 38 3013
27052 -0.80839921543131521 2.2190002925050631 3.0659906964791905 171 145 115 1.2038107025335261 72 678 76 363 77 287 78 329 79 144 79 1551 80 298
6299 -3.1689315269007592 -5.7548428720680525 17.82987251166503 48 75 84 0.89103054298766404 47 1020 48 1260 43 2288 44 873 45 1718
11791 0.97087056912177594 2.6265109464222358 2.8031686102240116 193 151 111 0.49208713022814354 34 571 32 624 30 648
25236 -0.10809691046769282 1.8760140242030903 3.1323334440125294 176 152 118 2.1780012788544165 64 1756 66 2391 67 2047
4483 0.43446742813912465 3.2643540067817809 2.3186687142447662 182 132 99 1.1979647876675494 49 3073 46 3306 44 2633
9975 1.7396774723969772 3.296456493425556 2.3391470956819744 193 135 89 1.9325399068843581 39 1316 40 983 36 979
7047 -0.60907143349939419 2.1183997243444797 2.2811742939002242 184 160 154 1.0331644732721657 44 412 42 983 41 1700
5938 0.29603990548481235 4.064709185460317 1.7758273656020369 165 104 57 0.24661753941204326 46 1670 42 3078
26691 -0.76817556189956993 2.1854407392749855 2.4640340428623677 230 255 255 1.6497925769372823 71 1185 74 1038 73 1454 72 905 76 1285
25140 -2.3076243634972813 2.4453126271306256 2.850693124480399 163 126 82 0.93830206641708069 64 997 66 1236 65 2235 63 739 68 3139 67 2810 69 2415
4387 -1.1898804472905586 0.94408776858504451 4.0303993430901057 190 189 176 0.0041367422040610898 48 2965 46 2666
5842 -0.81369536590274527 3.5347501359983351 1.9512766118460116 188 143 97 0.64829143094818431 45 1189 44 2659 43 1527
26595 13.666616492146062 5.8147554988560373 3.3670697047734923 88 144 167 1.1321434431809345 69 244 74 333 70 184 73 489 72 434
26388 0.40922493928765902 4.1879180112509617 1.5505235497291248 158 110 72 1.6081202505561336 66 316 70 316 68 1972
5635 1.2206575918501459 3.5970361656593637 2.09292431620411 199 136 85 1.148651493385574 45 3457 44 1246 43 3726
25137 -1.8640966698643415 3.2161360992818064 2.3016444437397015 151 113 74 1.0348378699506628 64 949 66 1191 65 763 68 1451 67 1088
4384 -2.099282464470468 2.1815132084321993 3.2650510730422755 204 178 153 2.0326262491853746 48 2855 49 2388 46 2657
9876 -14.211721631075134 -7.7552795407359216 18.735032315159607 34 42 45 0.66279202629229339 38 37 41 45 42 51 43 52 39 29 40 40 36 25 37 45
6948 0.022050607919475312 1.7759350236433376 2.3655161856322491 171 142 115 1.4588312844916356 51 2918 52 2561 49 2522 48 4981
5839 -1.140336765176269 3.656010277523388 2.1721254583236256 163 121 81 1.1931744077844684 45 1294 44 2635 43 2653
26592 4.723716834604585 2.2851264427579125 2.9406373266344272 177 236 254 0.82751269975441522 69 37 74 22 73 19
26385 23.363402962582942 7.53800493504641 7.9865791934089119 167 202 238 0.37038893815584562 66 201 67 230 70 306 65 177 68 193
5632 1.0024490253958496 3.6817343867668657 2.0331439571066605 159 97 48 0.95815740715845232 45 1485 44 1228 43 1292 41 1553 38 2785
25136 -1.6561883303260099 2.2495383612335291 3.0188396529149863 188 159 117 0.74044321562828797 64 283 66 1183 65 758 68 611 67 610
4383 0.56518980066137259 1.8861355227809813 3.2568987158475902 212 168 121 0.98335908012273132 48 2895 46 2656 47 4411
9875 -0.40859633906550086 2.3447753218045655 2.3107762633142404 120 93 72 1.379802861330452 38 25 41 25 42 31 47 29
6947 -0.63218546605159209 3.2138939449434814 2.2653290577487355 207 159 107 1.976883326342759 49 2836 45 3310 47 2990 52 2170 54 2162 51 2108 55 603 54 1188 53 965
27493 0.48566933481910535 4.9137521162750195 1.0931346005888676 194 131 87 0.52275789645244541 78 360 79 308 80 549
5838 1.1207480310275415 3.0334169454540705 2.6488565574982861 163 107 62 1.2741574553331925 45 2771 44 2619 42 2549 41 2321
26591 -0.6441597776839324 2.0810363993584504 3.2151184374644219 184 168 130 1.6569670366872795 69 323 71 345 62 96 64 95 66 165 65 111 68 103 67 114
26384 25.511400362776634 7.1083262591682255 8.4333194826474003 38 79 111 0.49413015808611388 65 220 67 225 69 205 70 304 62 210 64 193
5631 1.0675196792072885 3.669099788010433 2.0224185779537569 167 105 52 0.26193898465535009 45 1492 44 1227 43 1241 42 1423 41 3173
25135 -2.0892972758716635 2.3417127739539372 3.06601839755406 162 130 91 0.66745535849797832 64 605 66 1166 65 658
6946 -0.93875851847166514 2.7536503913867993 2.6529985253723365 203 160 120 1.0810107147823282 48 1029 46 3572 45 818 44 923 52 837 50 671 54 708 56 345 57 448
5837 -0.46306892898355306 3.3982102527422096 2.2315300075962408 207 164 119 0.5683000288672263 45 534 44 2618 43 761
26590 -0.17286095957709921 1.7775952464154408 2.5924006943848577 191 228 227 1.6396568871433452 70 953 71 1541 72 1160
26383 25.539394604117501 7.4525955559448063 8.0882852074182239 132 181 214 0.41346708642381119 68 467 69 200 70 302
5630 0.85881560327602247 3.7152773745904768 1.9470430199290416 178 116 67 0.50021419300005432 45 3700 44 1223 43 1291
25134 -2.7613950718289217 2.5143718488741653 2.8090586432294016 191 153 114 0.60930385802469778 64 350 66 1085 65 580 68 589
4381 0.67103289181457548 1.8238372448754196 3.3720926880403757 188 142 93 1.2171992940008107 48 2772 46 2647 47 2471 39 2314
9873 -14.239962186738859 -7.3749635625487473 13.640878862473318 129 114 119 1.1612685698121721 42 20 39 10 40 15
6945 -0.90249526488072696 3.2635286346022467 2.3105451491004412 98 74 51 2.1429746661575573 54 3095 51 3746 49 2812 50 3520 54 3113 48 3408 46 3119 38 2518 41 2618
26382 -0.94073429082441429 1.9859689383669419 3.2466773726258564 133 108 76 1.3379024353750144 67 448 68 284 70 284 71 287
5629 0.76401529834793114 3.7294750692312229 2.0003404671490737 170 112 64 0.40583290771850139 45 1489 44 1218 43 3712
25133 -2.7504458588916787 2.5835582287841934 2.7737894697642025 148 117 68 0.52352696631062812 64 568 66 1082 65 905 68 1104
4380 0.50032613582081531 1.8465082782640672 3.2795240097484295 185 141 92 1.5468300504597376 51 3184 46 2642 47 2470 45 2181
6944 -0.85490827563196237 4.0670808626901209 1.6881715608514967 154 106 60 2.2064279211386295 50 1840 49 2000 48 4477 47 4421 52 3748 50 2526 51 1917 49 3728 50 2558 54 2361 51 2811 48 4471 46 3982 47 1634 52 2270
27490 -1.2535193320768276 1.1859886311669627 3.8603432549327703 139 97 57 0.19662053783465114 78 207 79 272 80 263
5835 -1.1504967874148797 3.6208110786003069 2.0317828254456449 190 144 108 1.2954601410512747 45 1286 44 2608 43 561 44 547 42 557
26588 -0.5130732528109444 2.4835939136933103 2.9952652039895993 100 133 117 1.5736791341068492 70 1085 71 1512 74 1780
25132 -2.9222405781595304 2.0623616787503574 3.1421752071708915 162 131 87 0.30290444695155638 64 546 66 1056 68 952 67 919
4379 -1.1586233148633911 2.0142708581899451 3.2572670046396808 178 154 120 0.6688296104906799 48 2707 50 2706 46 2633 47 1998
9871 -1.6610885282068062 3.0736766280246575 2.3718886127791756 89 68 46 2.1661934194089634 54 1527 52 1170 56 819 57 835 55 1319 60 1808 56 1346 57 1674 53 1820 58 1051
6943 -0.47172491824599339 -0.054908256491807063 4.7452747031907219 89 85 92 1.2918431450447538 50 730 49 394 51 71 52 112 54 65
5834 1.5632289009395266 3.1105841647062982 4.6930336884214405 161 103 57 1.7084666644433399 47 1584 44 2596
26587 26.289485152257654 9.4362884263126539 6.1444197146966557 118 165 197 0.71347524404581242 67 1826 71 1499 73 1219
25131 -2.9252132589177706 2.5121173180956302 2.8269441742152495 181 146 100 0.60712969936842887 64 904 66 1050 68 573
4378 0.9020628895018391 1.9766851707831328 3.276667808186402 191 145 93 0.54573714335255241 48 2298 46 2631 47 2842 44 2249 43 2221
9870 -1.3962128588363871 3.2876763470510721 2.2289289247777622 190 143 98 2.1217720242472948 54 3166 51 4936 49 527 50 684 46 335 47 591 44 2980 38 2126 43 2954 38 2127
6942 -0.62915692241068222 3.1878049925510652 2.3484593036398058 188 137 84 1.4423243972931989 48 3357 47 2401 43 3742 52 3466 54 3497 46 3209 42 2301 41 2608 38 2535
5833 -1.1251631634053305 3.5905909541657701 2.0099293014729196 165 119 83 1.1616495202401902 45 2943 44 2594 43 3035
25130 -2.8087012532601925 2.2513130067809191 2.9275217398094706 206 168 129 0.74969552995390609 64 219 66 1038 65 566 68 252
4377 0.82054511745047709 1.9598034594426323 3.4033527001693695 207 159 111 1.1976920518878151 48 2834 46 2625 47 4242
9869 -0.50532086687046351 3.7583089320919201 1.8974456736075682 164 112 62 1.8274802131142176 50 1657 54 1063 51 1737 48 1674 46 1421 47 1502 45 1243 44 1609 52 1364 52 4192 47 4189 42 2475 60 1287 56 984 57 1388 55 1243 53 2933 57 4477 55 2502
6941 -1.3084693145716348 3.0875665172795506 2.3646331266227376 203 155 106 1.6852755963464821 50 1782 54 2342 51 1872 48 2517 46 2276 47 2171 44 3025 43 2377 52 2138 54 1769 51 3523 38 2195
5832 -0.91713586461361607 2.650012252258243 2.826520039455124 170 136 101 1.1652643295726715 45 2406 44 2582 43 2212
26585 -0.49227051302659952 2.1067839621242119 3.1592591096627816 141 132 99 1.6158494562445807 70 448 71 1437 74 661 73 612 75 396 79 477 72 1291 77 550 80 860
26378 26.79503732700584 7.3926717416557688 8.2114293536654319 107 145 168 0.51852448483087388 65 214 66 250 67 215 68 237 69 192 70 243 62 207 64 188 63 156
25129 1.7968538043607956 2.7283418320519512 2.6708025989138506 142 107 79 0.37874860900302859 62 931 66 1016 65 1739
4376 -1.8619914158745587 2.3017361188966334 3.0101342062124368 192 165 136 1.765654660785992 48 3211 50 3124 46 2624
9868 -1.5134036930671424 3.3541533291696659 2.1841380032996494 78 56 32 1.2298730329105261 54 4005 52 3102 60 1377 49 3055 52 1637 53 1497
6940 -0.80804735505074465 3.5280314252199942 2.0669886910347888 193 140 90 2.2320054203949899 50 2122 49 1631 45 2936 44 2590 43 3071 52 1488 54 1615 51 5073 49 1796 56 1526
25126 -2.0089596470929374 1.6389365133039049 3.3699890245943265 155 126 84 2.2372129286548055 64 466 68 997 67 1005
4373 -0.81496006300558388 2.2349503961570751 2.4032530948476007 190 176 165 2.0789334185295631 51 2562 54 2505 46 2615 44 1827 38 1806 39 2401 40 773 43 2300 37 1283
9865 -0.74091843501722565 2.0380727943198829 2.2745709053669292 141 122 99 2.1809123908887393 55 1977 53 2193
6937 -1.1779726661067584 2.8705555188396166 2.5471796675329239 164 122 82 1.4816037559927913 50 2373 48 1097 45 1821 46 2223 47 2162 49 2201 44 1723 44 3851 43 1678 52 1110 54 1146 51 4343 42 1004 56 2154 55 1662 59 438 61 724 63 579 62 821
27483 18.148163218438061 17.622206222209918 0.098131707720213138 185 230 249 1.1859773698203337 77 444 78 158 79 164 76 278 78 214 73 211 74 283 71 280 80 132 80 382
5828 0.42731253768081234 2.4241936985075174 2.9693443194922984 160 114 73 0.086836339462066384 45 2445 44 2563 43 2531
25125 -0.86760639393723582 2.7486415545228478 2.6276977086505307 180 144 108 0.62870350820847209 62 501 66 957 65 1144 69 728
4372 -0.79837008456188807 2.197837801119896 2.3743416529280625 175 151 124 1.4535245382460715 49 2386 46 2604 43 1801
9864 -0.54807081382615019 1.9018737259654426 2.5278780437120836 149 132 108 2.8550611923682192 56 1886 53 2103
6936 -0.082061797406928816 2.6202898217993709 2.6121116319327742 107 96 90 1.3699992951424389 50 742 51 652 49 656 48 661 46 391 47 539 45 331 44 402 43 689 52 762 54 2558 52 2401 42 486 41 526 49 3174 39 484
5827 1.1503367898406691 2.2523222539346914 3.0575387694162783 185 141 104 0.34555313096557994 45 2168 44 2562 43 1704 42 1642 41 2104 38 2530
26580 -2.0572561055782703 2.6517477946739838 2.6945216158929961 146 110 61 0.50656579773753596 70 1220 71 1250 74 1462 73 1413 75 1654
25124 -0.72448232343830365 2.7142009784751191 2.695725093017538 151 113 77 0.75715487489658384 63 529 64 1660 66 955 65 1234 68 1305 67 1546 69 677
4371 -1.8409856389216728 2.2181931721970041 3.0662935756547141 172 147 117 0.19863066737608792 50 3143 47 2837
6935 -1.1513740845792895 -1.7754587606057606 6.8518475695429322 29 34 39 1.5500056818753114 47 163 48 84 52 127 45 366 49 126 51 90
5826 -0.88711296570787845 2.681582568135533 2.695335037956776 166 131 99 0.32884193234953729 45 2429 44 2540 43 2476 42 1752 38 2036
26372 27.26439313975504 7.8356735309908592 7.3663673033595849 111 150 175 0.38621760703937819 65 321 66 366 67 401 68 452 69 419 70 224
25123 -2.6053787329470546 1.8899432657400637 3.2637628022038632 184 154 114 0.84829935116485267 64 872 66 950 65 1460 68 3452 67 2548
4370 -0.010622649281795531 1.8987641128403585 2.3661741997112942 146 137 136 1.6263859300526995 51 2478 52 2576 55 2077
6934 -0.35457191308422426 4.0776095125590031 1.6495183021437974 160 107 58 1.7262689985969786 50 1396 49 1232 48 1906 46 1628 47 3852 44 3318 54 919 51 917 47 1655 43 1510 52 895 45 2078
27480 23.774535975239658 22.229522668457133 -3.1295262999220101 173 212 243 0.55201070253481288 76 53 77 137 78 107 79 73 72 64 73 75 74 72 75 70 71 78 80 60
5825 0.85632583149962072 2.1449766314049628 3.1381936589174835 202 161 117 0.92389594566025179 45 2718 44 2533 41 2205 38 2048 40 2111 39 2452
26578 -0.51649581364372188 2.0226748323629922 3.2227081768994412 162 141 99 0.61146539709912484 70 1296 71 1211 73 1360
26371 27.543060785423016 7.75616926788007 7.8922806039557827 100 143 162 0.50946405589500565 65 319 66 365 67 365 68 468 69 335 70 223 62 470 64 311
6933 -0.93360297573676398 3.6292777719579559 2.0441219727335942 164 115 66 2.431073495877591 48 4601 50 2037 46 4156 47 3998 52 1925 50 4101 51 4553 49 3938
5824 -1.6636157119850739 2.7420460935591948 2.5580508409082521 196 172 138 0.35401962478929244 45 2476 44 2529 43 2157
26577 -0.95749660160262784 1.3672330265178556 3.6739843358714932 170 143 100 1.2183862934641463 70 1209 71 1201 74 1390 73 1399
25121 -1.0283993629305117 1.3688175841398744 3.8384004735710118 187 162 121 0.35135593585384212 64 685 66 908 65 714
4368 -1.231996992273718 1.7729335091657936 3.3817554437904578 180 159 137 0.42822296991613029 48 2809 46 2586
6932 -0.72868285083636131 3.1563055493099754 2.3655520310221707 193 140 95 2.4907520784482489 49 2927 45 3341 52 2161 50 1742 54 2350 51 1906
5823 -1.4641552221275942 2.6634331147435391 2.7366371164415479 162 132 104 1.6485144728298706 51 3958 44 2528 43 2155 42 2014
26576 -1.9241596346672829 2.9921359905015268 2.4362362824940336 193 150 107 1.5368277081126034 69 1919 71 1197
25120 -1.2257885713309007 1.6713934492257987 3.3164867843395252 177 152 111 1.1861972731037627 64 524 66 903 65 439
4367 0.074225441412370183 1.8335456676940309 2.3160600281546411 176 151 129 2.3247044721799051 51 3066 46 2583 43 588
9859 -0.39222396317416325 2.3958638034676349 2.4760733852406087 133 122 104 1.7631434724761172 54 7 53 10
6931 -0.72964914808729575 3.8806461195528437 1.8070457316899038 185 133 86 1.9781047402095258 51 4616 47 3644 52 2354 50 4330 51 4614 49 3480
25119 -1.2550072208118972 2.7887868363554884 2.6646843627689187 187 155 117 1.0018112934028585 62 540 66 902 65 720 69 2481
4366 0.5939462389476754 1.6485372714372497 3.3775632379325655 200 161 118 0.94110031340185341 48 4993 46 2549 45 2219
9858 -1.2790983712017494 3.460573392725113 2.1216830913451208 187 138 90 1.5388573042507958 51 5129 49 3775 60 1496 54 3937 52 3943 56 3855 57 1223 50 4468 44 3163 53 1588
6928 -0.28309323405438097 3.5478364034018814 2.0637891717647299 121 81 45 2.3622831155452646 46 4158 52 2999 50 4561 51 5107 49 3741 48 4988 46 4219 47 3988
27474 0.49942906290818395 3.9524543684712539 1.7390745700002637 157 95 46 0.26774433129507358 77 659 78 1058
5819 0.62359648459703032 2.2292907325232574 3.0528981504194301 186 141 99 1.5895002916165009 45 2693 44 2491 43 2479 42 2044 38 2090
25116 -1.6347017667336934 3.1085810003116436 2.399372600092518 186 147 108 1.143672461256749 64 725 66 880 68 752 67 2136 69 1030
4363 -1.9121073772127701 2.0195708223406754 2.9089764783493379 170 154 129 0.025522029419844099 48 5023 46 2535
6927 -0.81198687006608272 3.2716889630244927 2.2278832145659857 203 152 101 1.8128707437791591 48 1786 46 1830 45 1369 43 2885 52 1168 54 737 51 3759 49 1377 50 3535 47 3212 46 3103
6926 -0.6815024098071566 3.0756666273989679 2.412077313107861 129 85 49 1.2258229518835566 50 3367 51 2853 49 3307 46 2248 47 1579 45 1775 52 3261 48 2483 54 3289 60 3133 56 3387 57 3698 55 2651 53 2299
5817 1.0659784458234891 2.1060778539042384 3.1774339754871836 200 158 108 0.19101785774687513 45 2724 44 2486 41 2267 42 2338 38 2120
26570 -0.36596594906886309 2.0094548875333809 3.2199229811357095 180 158 115 1.0581591854400398 70 1089 71 1130 74 999
25114 -0.6665639073178079 3.2692576964483733 2.2677957604447481 198 156 114 0.77713445620407207 63 568 66 843 68 1651
4361 0.73576074716503881 4.0459977859720295 1.7559754179745608 164 103 49 2.209277424608536 48 4392 46 2506 47 1574 48 3128
9853 -1.0767393614286225 3.1598138599568721 2.34149768169662 197 145 97 2.2228546529638202 50 3278 51 2102 49 2867 48 3444 46 3150 47 3046 44 2940 45 933 43 1890 52 670 60 1283 56 610 57 1368 53 957 50 1829 54 1714 49 2863 52 1156 53 954 54 1721 57 1457
6925 -1.0491827088655696 3.5541180713899641 1.9868459067678204 104 77 52 1.5875227999702206 47 1700 52 1915 50 4613 49 3761
25113 -0.54583999114502058 2.0214799578341482 3.2161561834366226 181 165 132 0.25391541582218169 64 539 66 830 65 708 69 725
4360 0.88907683494330003 4.0712384814254765 1.8688670100705547 164 97 42 1.9720742430487206 48 4375 46 2504 47 2330
9852 0.88945771184124711 2.6901349847310541 2.8402823505710337 176 136 102 2.5008579955314905 56 1887 55 1896 53 3086 60 2881 56 2273 57 2402
6924 -0.86819070499687878 3.2508125035723987 2.2652182887771102 190 140 91 1.4400095491364173 49 2814 46 3056 52 1708 54 3065 51 3884
25112 -0.85620154471121268 2.7473914864494451 2.6653272376593549 157 125 87 0.86797936044353874 63 447 66 806 65 699 67 529 69 452 70 438
4359 0.95636124636593645 4.0143189539205046 1.7476984085806551 176 104 46 0.23816898780662812 48 4387 46 2499 43 3749
9851 -0.82225624794244834 2.0894811228608381 2.4039960055420151 215 206 194 1.7576076195331372 54 2240 55 2051 53 2154 60 2805 56 2684 52 2637
6923 0.021500330306328874 3.4009141152272639 2.1820517419669554 191 132 80 0.83809860024823368 50 650 51 422 46 843 56 372 57 395 55 363
5814 -0.053365755826486734 4.5086539464571898 1.8185645191888484 172 114 66 1.0362687733782772 49 744 44 2469
25111 -2.7563537370553957 2.3760215891705769 3.0261952065501578 195 163 121 0.29572098098032468 64 565 66 797 65 565
4358 -0.78603144277304693 4.2693307400340874 1.5635182439937132 155 102 52 1.4357196403024208 48 2651 46 2497 47 2302 45 4109
9850 -0.98077067911088855 3.6514333312293359 1.9639579974515715 188 138 91 1.7734089217791691 50 1696 46 4190 47 3990 48 2156 45 4045 53 1153 56 1781 55 1301
6922 -0.44402520363553027 3.8862505260884039 1.8056302428006858 196 140 91 0.55352627689819633 48 1788 46 1520 47 1442 52 867 54 903 51 1061 53 746
27468 20.306986637124279 15.744814133981871 1.7290494699120991 80 124 167 0.45600829089906431 76 416 77 302 78 224
5813 0.57753483856848664 3.0112896363926884 2.5087606000822009 158 109 74 0.19913764386903637 45 3328 44 2458
26566 14.138741888802967 6.2372395551261075 2.9153791387655237 136 184 220 0.093660978439402409 69 444 71 1075
11098 3.6299062584377513 -0.19792904144020135 4.808416537335682 154 125 93 1.7901456548430807 57 1090 58 637 60 2124 59 936 61 563
25110 -2.5452148807848922 2.074405771467096 2.9727648165576905 191 158 117 0.85200126380389418 64 650 66 783 65 679 68 1035 67 1035
4357 0.89095266007443119 4.0459897896209034 1.7856887529672041 181 113 58 0.49870406246609339 48 4391 46 2496 47 2324
9849 0.4526717896573666 2.3585225618998349 3.0293567397605163 200 152 104 1.0359408755431228 54 2206 51 2517 49 2764 50 3119 47 1984 52 3739 53 1352 56 1898 55 993
6921 -1.4420827344533329 1.4492567587383089 3.6095617104314055 176 160 147 1.6958021084731489 50 2931 46 4517 51 2445 47 2597 52 2057 50 4699 54 2267 51 3096
25109 -2.5881343936544234 2.1662532310285396 3.1234467591069719 153 120 79 0.66738020292302569 64 624 66 769 68 1574
